0.088187 -0.045213 -0.077759
-0.086466 0.040696 0.089103
-0.090201 -0.027577 -0.043694
0.097137 0.017253 0.094289
-0.000551 0.096919 -0.065531
-0.009415 -0.097347 0.053814
0.018207 0.003560 0.000715
0.018038 0.095388 0.057276
0.090074 0.038620 -0.019717
-0.004855 -0.098524 -0.081221
-0.065244 -0.071354 0.048669
0.082850 -0.053292 0.043964
-0.000118 -0.027885 0.095074
-0.038443 0.005771 -0.090193
-0.079939 0.050539 -0.036743
0.047760 0.044036 -0.090201
-0.001324 0.076355 0.094904
0.012143 -0.081009 0.000762
-0.094931 0.001324 0.044884
-0.055207 -0.028571 0.003952
-0.027251 0.070432 0.000760
0.043666 -0.070028 0.095035
-0.054151 -0.079952 -0.028417
0.041772 0.087098 -0.009532
0.021296 -0.040156 -0.090223
-0.069960 -0.026783 0.094999
-0.027406 -0.094865 0.088378
0.096643 -0.012754 0.006526
-0.044697 0.084827 0.064382
0.072419 0.067008 -0.050317
0.067280 -0.070924 -0.028307
-0.061983 -0.053001 -0.090223
0.069114 0.070249 0.065459
-0.088868 0.009869 -0.090223
-0.022843 0.011760 0.095074
0.092711 0.015884 -0.090213
-0.053022 0.068583 -0.090223
-0.073480 0.058755 0.029495
0.044910 0.007469 0.095025
-0.026106 -0.093373 0.027850
0.095788 0.014479 0.040215
-0.055638 0.026895 0.000593
0.038280 -0.090139 0.045954
0.053865 0.029044 0.003834
0.002114 0.062379 -0.090202
-0.067938 -0.068017 -0.014808
-0.050680 -0.083768 -0.081041
-0.018621 -0.032950 0.004054
0.007039 -0.007664 -0.090223
0.084964 -0.035098 0.094914
0.038928 -0.046631 0.003917
-0.089452 0.024723 -0.090223
-0.046059 0.083215 -0.041107
-0.046711 0.082880 0.044278
0.078503 -0.057905 -0.009905
0.045038 -0.087862 -0.070380
0.027693 -0.092345 -0.029693
-0.093777 0.010065 -0.040259
-0.088147 -0.033121 0.021681
0.092637 0.027599 0.026340
0.051965 0.051172 0.094926
-0.009315 -0.096367 -0.018510
0.051940 -0.011461 -0.090223
0.095989 -0.019954 -0.034089
0.043173 0.088144 -0.078702
-0.067168 -0.070859 0.083724
-0.093792 0.014396 0.056025
-0.050758 -0.033014 -0.090190
0.079998 0.057936 0.077028
-0.005591 0.094421 -0.020664
0.057132 -0.005412 0.000877
-0.040920 -0.070522 0.000732
0.001657 0.083583 0.000732
0.050230 0.082533 0.022534
-0.043714 0.055639 0.095042
-0.016941 0.027369 0.003975
-0.010264 0.095460 0.094924
0.093033 0.029764 -0.045800
-0.056561 -0.077722 -0.009477
0.008016 0.031851 0.095050
-0.090923 0.022315 -0.007261
-0.088723 -0.037152 0.067700
0.003581 -0.076481 0.094973
0.062151 -0.075134 0.013578
-0.015833 0.092427 0.026834
0.070048 0.067721 0.014823
-0.031769 -0.052464 0.094990
0.050734 0.083627 0.063796
0.094712 -0.024411 0.022993
0.007588 0.036710 -0.090223
-0.086621 0.002189 0.095074
0.018353 0.045768 0.000715
0.009911 -0.095588 0.025641
-0.018848 -0.058296 -0.090174
0.062845 -0.075549 0.075010
-0.090636 -0.031491 -0.079397
0.015605 -0.080030 -0.090212
0.025005 -0.094600 0.082976
0.098236 -0.011522 -0.064045
-0.060507 0.013742 0.095074
-0.071499 -0.064950 -0.040879
0.043598 -0.033872 0.094924
0.042779 0.087202 0.094758
-0.064057 0.055325 0.000548
-0.068958 0.065098 0.065316
0.088146 0.046306 -0.081851
0.019247 -0.095462 -0.071177
0.034463 0.091543 -0.049882
-0.090918 -0.017566 -0.005408
-0.015658 -0.001940 0.000749
0.064476 0.032286 -0.090208
0.075761 0.061593 -0.025078
0.051231 -0.067318 -0.090223
0.098110 0.001270 -0.031036
0.093331 -0.032879 0.070878
-0.072104 -0.062766 0.016179
0.034474 0.009590 -0.090223
-0.027622 -0.093918 -0.055266
0.044600 -0.086236 -0.007813
-0.072951 -0.002431 -0.090223
-0.028503 0.024110 -0.090223
-0.068021 0.001418 0.000688
0.019251 0.094317 0.027459
-0.020949 0.083459 -0.090169
-0.080205 0.051189 -0.069810
-0.023261 0.046525 -0.090223
0.008046 -0.043935 0.003989
0.028048 0.011200 0.000744
0.098570 -0.000566 -0.053930
-0.048523 -0.004373 0.004104
0.085997 -0.047749 -0.047536
-0.061352 0.071768 -0.016471
-0.072471 0.045138 -0.090223
0.063017 -0.046548 -0.090223
0.097609 -0.013982 0.056219
0.069181 0.070749 -0.083986
0.073496 0.003269 0.095069
-0.032120 0.089419 0.094979
0.058740 -0.035838 0.003905
-0.089763 0.029121 0.028830
0.083864 -0.015834 -0.090223
0.079684 0.056622 0.038469
0.095416 0.020684 0.065853
-0.078502 0.051610 -0.003052
-0.030427 -0.093558 0.072137
-0.039449 -0.015485 0.095074
0.035899 0.072258 -0.090151
0.020879 -0.094432 0.055453
0.023417 0.093597 -0.023398
0.045076 0.064200 0.003851
-0.007236 0.095177 0.056832
0.077300 0.040095 0.000927
-0.063485 -0.055607 0.003996
-0.071086 0.037932 0.095074
0.005718 0.093154 -0.090149
0.080424 -0.058259 0.079902
-0.001479 -0.097753 -0.041667
0.071347 -0.068825 -0.079697
-0.016650 -0.084126 0.000736
0.007407 -0.001028 0.094986
-0.094315 -0.000668 0.018092
-0.092189 0.022500 -0.063514
-0.077513 -0.057943 -0.072808
-0.094455 -0.010902 0.071961
0.027329 0.066750 0.094910
-0.030265 0.088984 0.010455
-0.085416 -0.042460 -0.018562
-0.035814 0.048924 0.000707
0.088332 -0.041147 0.017223
-0.089848 0.029401 -0.029452
-0.011664 -0.060808 0.000713
-0.028680 0.091177 -0.059763
0.038594 -0.089344 0.017566
-0.064640 0.070037 -0.058173
-0.015666 0.053172 0.095048
-0.093601 -0.013291 -0.057688
0.048099 -0.063740 0.000793
0.087461 0.044765 0.094878
0.018112 0.096118 0.086064
-0.086030 0.039904 0.059809
0.091937 0.013019 0.000785
0.029715 -0.021211 0.000786
-0.051346 -0.081086 0.025882
0.059324 -0.077799 0.047850
0.015091 -0.056325 0.095074
-0.050342 -0.079719 0.094930
-0.008006 -0.029932 -0.090215
0.067623 -0.042076 0.094840
-0.073394 0.061401 0.093821
-0.071619 0.015875 -0.090223
0.079232 0.003764 0.000785
-0.089927 -0.026641 0.034996
0.067862 -0.071980 0.090067
-0.017662 -0.010093 0.095074
0.032435 -0.092008 -0.047221
-0.053242 -0.081375 -0.053112
-0.019129 -0.085264 -0.090140
0.000564 -0.098539 0.085557
0.056697 -0.079692 -0.047100
-0.058604 -0.054153 0.094923
0.018274 0.070482 0.000715
-0.007185 0.076979 0.000741
-0.054950 0.078579 0.093006
0.099520 -0.008498 0.095072
-0.034571 0.088331 -0.018072
-0.084983 -0.044143 0.094885
-0.028973 -0.016949 -0.090192
0.004661 -0.021616 0.003970
-0.038991 -0.048994 0.000728
0.031062 -0.085948 -0.090223
0.096004 0.019285 -0.069896
0.068935 0.027223 0.094965
-0.028931 0.090404 0.043250
-0.053362 0.077297 0.007083
0.021330 -0.019359 0.094980
-0.036661 0.033136 0.095074
-0.034310 -0.091189 -0.038106
0.091543 -0.033488 -0.006209
-0.094626 0.012716 0.081495
0.056606 -0.020398 0.094914
-0.052697 0.043033 -0.090199
-0.036147 0.011922 0.004060
-0.078314 -0.055389 0.042188
0.038111 0.088872 0.013591
-0.011083 0.049016 0.003938
0.080282 -0.011012 0.095022
-0.094530 -0.013227 -0.083973
-0.074254 -0.030335 -0.090223
0.083823 0.051714 -0.055118
-0.088020 0.032494 0.014000
0.063916 0.068825 0.094811
0.067981 0.069468 -0.008409
0.073913 -0.021131 0.000709
-0.024467 0.092211 0.069399
-0.053886 0.077537 0.027619
0.001264 -0.074523 -0.090200
0.030153 -0.017761 -0.090223
-0.042797 -0.087062 0.055051
-0.030021 -0.011750 0.004072
-0.020894 -0.075258 0.094931
0.027826 0.050680 0.094974
-0.023956 0.091347 -0.037708
0.064974 0.073058 0.041519
-0.004013 0.095588 -0.045404
0.063578 0.004739 -0.090223
0.094998 -0.027681 -0.066481
0.099015 -0.009670 -0.084092
-0.003732 -0.098063 -0.057775
0.005509 0.026640 0.003924
0.039849 0.027173 0.095033
0.088406 0.043296 -0.037835
0.034451 0.024182 0.000758
-0.076664 0.054728 -0.022017
-0.067167 0.066090 0.042050
0.018529 0.095867 -0.074730
-0.036026 -0.089435 -0.005764
-0.082382 -0.039705 0.000733
0.073726 -0.063779 0.029849
0.090894 0.037777 0.045826
0.090638 0.039696 0.071779
-0.003718 0.012949 -0.090223
0.029066 -0.071577 0.095074
0.044544 -0.088145 0.068370
-0.045295 0.084589 -0.074830
0.024548 0.033675 -0.090223
0.076795 -0.059641 0.011985
0.017392 0.059214 -0.090195
-0.093473 0.008007 -0.022860
0.064441 -0.074172 -0.063315
0.035601 0.091065 0.073362
-0.092131 -0.025705 0.092612
-0.082120 -0.048130 0.023900
-0.083714 -0.046449 -0.035573
0.025725 -0.058511 0.000796
0.052691 0.081931 -0.040618
0.088141 -0.042451 -0.027981
0.067874 0.054586 -0.090152
0.053024 -0.081827 -0.027484
0.036283 0.090145 0.038615
-0.052396 -0.082251 0.071576
-0.046715 0.001094 0.095074
-0.003041 0.015667 0.094981
-0.002949 -0.096661 -0.001483
-0.051925 0.023277 -0.090195
-0.070396 0.063961 -0.089945
0.092263 -0.034436 0.049541
0.012841 -0.094756 -0.013745
0.020369 0.092015 0.004006
-0.087846 0.003189 0.004025
-0.016940 0.094273 -0.081743
0.068025 -0.050814 0.000613
-0.076552 0.022301 0.000662
0.046472 -0.053248 0.094971
0.065774 -0.071384 -0.002246
0.013070 -0.087267 0.094954
0.097558 -0.002761 -0.009568
-0.067100 0.066785 -0.037432
-0.079524 -0.051639 -0.004758
0.076667 -0.037063 -0.090223
0.098933 0.000588 0.071574
0.079851 0.023531 0.000887
0.077164 0.061935 -0.071082
-0.086670 0.037978 -0.049983
-0.019067 0.091022 -0.000057
-0.090074 -0.021751 0.010415
-0.073433 -0.015170 0.000743
-0.007300 0.014627 0.000741
-0.062451 0.070146 0.014169
0.022119 0.082923 -0.090191
0.059350 0.049681 0.003809
-0.038853 -0.054738 -0.090124
-0.042279 -0.034378 0.095032
-0.077346 -0.057917 0.070900
0.024036 -0.036641 0.000778
0.032271 -0.008758 0.003901
0.036576 0.046723 0.000744
0.042559 -0.043608 -0.090223
0.034591 -0.009289 0.094912
-0.093476 -0.008128 -0.023764
-0.079387 0.018748 0.095074
-0.058716 0.075287 0.067145
0.089122 0.040014 0.010460
-0.015524 -0.046535 0.095071
-0.057379 -0.011979 -0.090223
-0.007658 -0.061877 0.095002
0.076763 -0.061615 -0.061558
0.048269 0.085034 -0.060686
0.004084 -0.097406 0.044661
0.019515 0.014879 0.094995
0.003658 0.096073 0.028463
0.096434 0.007699 0.018951
0.024515 -0.091934 0.004105
0.081814 0.052386 -0.007668
0.035537 -0.066567 -0.090223
0.003927 0.096938 0.072035
0.048987 -0.031118 -0.090223
0.063071 -0.074730 0.032688
0.010711 -0.029960 -0.090223
-0.005438 -0.096862 0.022600
-0.040232 0.079814 -0.090200
-0.024168 -0.050812 0.000691
0.095142 -0.026327 -0.051671
-0.084250 -0.046985 -0.058331
0.036947 0.090105 0.051603
-0.059099 -0.075267 0.009989
-0.007624 -0.033868 0.000742
0.007042 0.096065 -0.026680
-0.039909 -0.089151 -0.062684
-0.017177 -0.096697 0.075975
-0.063651 -0.073423 -0.064784
0.018074 -0.034868 0.095042
0.095509 -0.022705 0.041003
-0.095470 0.000581 -0.072151
-0.002959 -0.052102 -0.090208
0.027411 0.060810 0.003859
-0.039078 -0.066554 0.094914
-0.036165 -0.027854 0.004033
-0.054389 0.030721 0.095074
0.080536 -0.037383 0.004112
0.010771 -0.096980 0.070985
0.056165 0.081359 -0.083396
-0.014869 0.034498 0.095004
-0.053976 0.041166 0.004080
0.016199 -0.095645 -0.090204
-0.022511 -0.095533 -0.076293
0.056916 0.077047 0.004277
0.074375 -0.063921 -0.043903
-0.024418 -0.041132 -0.090178
-0.027877 -0.093468 0.046265
0.025497 -0.092807 0.035093
0.069575 -0.069607 0.059111
-0.064384 -0.044785 0.000742
0.079535 -0.001538 -0.090223
0.038419 0.079849 0.003955
0.079371 -0.057449 -0.028946
-0.022787 -0.072409 0.000738
-0.034146 0.024142 0.004037
-0.018405 0.065617 -0.090214
-0.082049 0.044857 0.013317
-0.028116 0.066403 0.095030
0.031201 -0.044981 0.095014
-0.063364 -0.004073 0.095074
-0.018129 -0.095528 -0.035556
-0.044709 -0.084804 0.009388
0.001299 -0.003935 0.000733
0.013392 0.094612 -0.007898
-0.079775 0.052271 0.066734
0.098324 -0.003365 0.040981
0.005786 0.096451 0.047894
-0.077833 0.054301 0.044789
0.085210 -0.050196 0.064794
0.080311 0.056539 0.055286
-0.057561 -0.011458 0.000690
-0.055023 -0.022478 0.095056
0.066792 0.071263 -0.031704
0.000979 0.060837 0.000733
-0.050803 0.079233 -0.010785
-0.090868 -0.024982 0.052469
0.050458 -0.085078 0.084835
0.037866 -0.004917 -0.090223
0.048479 0.003489 0.003863
0.029977 0.093169 -0.064230
-0.077340 -0.058748 0.091557
0.094053 -0.031884 -0.087685
0.056787 -0.080185 -0.087351
0.080520 0.054603 0.021087
-0.026563 -0.092636 0.007658
0.066302 -0.029411 -0.090223
-0.081085 -0.046422 -0.090198
-0.012388 0.028466 -0.090223
-0.046593 0.064844 0.000660
0.092808 0.024756 -0.009759
0.028725 -0.074588 0.003961
-0.083340 0.043607 0.032234
-0.093207 0.013265 0.023036
-0.075636 -0.059769 0.055994
-0.035033 -0.082420 -0.090104
0.053157 0.019425 -0.090223
-0.008967 0.051157 -0.090223
0.012095 -0.060156 -0.090220
0.045398 -0.024746 0.003889
-0.093455 -0.012328 0.052141
0.049947 -0.083224 0.004784
-0.087969 0.036689 -0.071123
-0.001857 -0.077358 0.003970
-0.037613 0.054829 -0.090223
0.014581 0.082024 0.094841
0.014429 -0.095519 -0.045050
-0.011158 0.092845 0.011898
-0.072460 0.037337 0.000615
-0.040119 -0.087960 -0.024316
0.097815 0.007200 0.055026
0.047309 0.069210 0.094848
-0.043956 0.084976 -0.057490
0.091223 -0.035778 0.032551
0.079890 0.019273 0.094967
-0.094780 -0.005102 -0.043432
0.094006 -0.026132 0.008157
-0.008749 -0.045704 0.004023
0.000606 -0.060424 0.000734
0.084561 0.033841 -0.090192
0.030948 0.093695 -0.089619
-0.092484 0.019157 0.042333
-0.046219 -0.004450 -0.090164
0.093865 0.032165 0.088791
-0.007357 -0.015013 -0.090223
-0.014834 -0.072580 -0.090168
-0.083738 -0.048781 0.077489
0.034919 0.090927 -0.033313
-0.073194 -0.064657 -0.086225
0.088922 -0.042833 -0.062354
-0.091646 -0.024493 0.071955
-0.037527 0.088525 0.080348
-0.091498 0.025447 0.092011
-0.039146 0.086259 0.022556
0.003989 0.077365 -0.090205
-0.068416 -0.029823 0.000756
0.058729 -0.077635 -0.014382
0.046880 0.061225 -0.090151
0.095881 0.014648 -0.039158
0.067516 0.004901 0.000896
-0.039274 0.076774 0.003983
0.016387 0.020276 -0.090223
0.060824 0.077369 0.076709
0.079506 0.057206 -0.040565
-0.064799 0.070573 0.085161
0.023430 0.024929 0.000710
0.005660 0.095650 0.012968
0.095553 -0.027113 0.085192
-0.037719 0.039505 -0.090223
-0.044231 -0.016895 0.004061
-0.030381 0.047732 0.095030
0.080304 -0.056383 0.094827
0.049098 0.016770 0.003852
0.055769 0.033930 0.094971
-0.073259 -0.063489 -0.059253
-0.057949 0.076194 -0.073750
-0.091187 -0.026395 -0.065270
-0.012734 -0.014122 0.004018
-0.060464 -0.038528 0.094975
0.068385 0.042351 0.094924
0.095174 0.025515 -0.082645
0.023109 0.033113 0.095051
0.029598 0.047599 -0.090208
-0.026185 -0.022618 0.095074
0.008910 -0.094586 0.000745
0.080889 -0.056845 -0.078200
-0.002574 -0.011941 0.095065
-0.080699 -0.016879 -0.090223
0.039134 0.032037 -0.090223
0.053261 -0.047888 0.000818
0.067290 0.026433 0.000898
0.092511 -0.033430 -0.039056
0.082167 -0.053282 0.024190
0.012594 0.096372 -0.058780
0.061319 -0.007080 0.094994
0.010782 -0.009626 0.000723
-0.010648 0.095055 0.073009
-0.091899 -0.014989 0.023356
-0.077016 0.055901 -0.056505
-0.034438 -0.090368 0.016093
-0.091987 0.022099 -0.048888
-0.078064 -0.054996 -0.018636
0.099082 0.004068 -0.079317
-0.071869 0.006090 0.095074
0.073431 -0.026363 0.094928
-0.006216 0.035157 0.000740
-0.051531 0.008097 -0.090193
0.053652 -0.081243 0.022968
-0.021401 0.040853 0.003972
-0.017897 0.091740 -0.014123
-0.049044 0.014535 0.000604
-0.024205 0.004714 -0.090217
0.097474 -0.011111 0.028848
-0.040241 -0.089122 0.085273
0.003251 0.045389 0.095035
-0.019580 -0.095869 0.061860
-0.014535 0.093178 0.041095
-0.083442 0.042698 -0.018149
0.049233 0.085258 0.082125
-0.070570 -0.065700 0.035967
-0.053154 -0.060935 0.003995
0.006888 0.095129 0.094886
0.093650 0.020254 0.012366
-0.025146 0.009665 0.000722
0.057979 0.018281 0.095031
0.078652 -0.059637 0.062794
0.044280 -0.087757 -0.053871
-0.016581 0.093404 -0.054714
0.089068 -0.043514 0.084250
0.011634 0.058882 0.003889
-0.012914 0.061328 0.003932
-0.089302 0.031799 0.048669
0.013948 0.016676 0.003916
0.045618 0.040471 0.003841
-0.052862 0.044687 0.095074
-0.055369 0.063584 0.095070
-0.095762 -0.007967 0.091648
-0.024888 -0.093763 -0.025953
0.012469 -0.061683 0.003998
0.002021 0.010072 0.000732
-0.063437 0.019760 0.004141
-0.064203 0.033786 -0.090223
-0.075188 -0.014220 0.095039
0.081146 -0.009402 0.000693
-0.051100 -0.047317 0.000750
-0.032547 0.090726 -0.088833
0.070078 0.068214 0.030241
0.075299 -0.061745 -0.089978
0.085635 -0.045946 -0.008174
0.092111 0.036565 -0.073657
0.080928 0.053280 0.005811
0.005775 0.047126 0.003909
0.028916 0.091826 -0.010511
0.043867 -0.084505 0.095074
-0.032681 -0.040899 0.000691
0.090584 0.000001 0.004000
0.069085 0.070249 -0.063244
0.007188 0.071505 0.000727
0.027283 0.087180 0.094805
-0.089098 -0.030742 -0.030415
0.086037 0.049125 -0.068333
-0.039540 0.038645 0.000670
-0.085487 -0.044299 0.058510
0.090189 0.035905 0.000373
0.093921 0.025318 0.050053
0.006814 -0.045670 0.095074
-0.070652 -0.048207 0.095018
0.048077 0.003795 -0.090223
-0.033302 0.000595 0.095074
-0.003802 0.063190 0.094993
-0.039554 0.085634 -0.005799
0.048904 0.084356 0.049760
0.020622 -0.093190 0.018006
-0.068340 -0.066481 0.000700
0.018956 0.095556 0.070603
0.033601 -0.090198 -0.001572
0.016012 -0.069658 0.095056
-0.063011 -0.073390 -0.046642
-0.079663 -0.003318 0.000732
0.098533 0.006143 -0.065385
0.036373 -0.031723 0.003911
0.095491 0.011904 -0.011682
-0.093699 0.016361 -0.075171
0.062735 -0.075619 -0.076378
0.056263 -0.076037 0.094997
-0.012936 -0.024605 0.095074
-0.084730 -0.044579 0.038079
0.093218 0.024980 -0.022970
0.094374 0.025286 -0.058242
-0.074354 0.060016 -0.077702
-0.009284 0.000107 0.095058
0.048909 -0.084953 0.040134
-0.053572 -0.066292 0.094916
0.058950 -0.078310 0.062774
-0.028434 -0.094528 -0.087956
0.069050 -0.068464 -0.016392
-0.092631 0.019981 0.070790
-0.086299 -0.043239 -0.070635
0.030999 -0.030666 0.094971
0.090081 0.040616 -0.059396
0.062235 -0.024691 0.000836
0.068950 0.060458 0.000869
0.042343 -0.087817 -0.023234
-0.018536 0.093867 0.083210
0.080526 0.051998 -0.090146
0.073400 0.065756 0.048026
0.014036 0.034795 0.000719
-0.078499 -0.053426 0.010034
-0.036261 -0.000483 0.004078
-0.081344 0.050555 0.082599
-0.093442 0.003706 -0.004186
0.014799 0.067629 0.094932
0.077671 0.022989 -0.090213
0.075705 -0.062507 0.049337
-0.048152 0.017195 0.095074
-0.007828 -0.095932 0.094882
0.008050 -0.045570 -0.090223
-0.018311 0.093559 -0.069056
0.039325 0.088640 0.026288
0.008956 -0.017441 0.095030
0.036501 -0.028686 -0.090223
-0.006953 0.091473 0.000740
0.037498 -0.090787 0.060162
0.077505 0.052449 0.094868
-0.052222 -0.060922 -0.090199
0.035136 0.035763 0.000749
-0.063419 0.069753 0.030646
0.088072 0.046262 0.082133
0.025967 -0.083662 0.095005
-0.017994 -0.094925 -0.009655
0.086744 -0.048829 -0.089594
0.096797 -0.021366 -0.080458
-0.032309 -0.092649 0.059881
0.023118 -0.064931 -0.090223
0.050932 -0.016146 0.000860
0.046365 -0.005458 0.094963
0.039042 0.060003 0.094916
0.057396 0.067714 -0.090107
-0.091622 0.018921 0.004585
-0.018439 0.017033 -0.090223
0.030331 0.070731 0.000702
-0.018128 -0.095833 -0.048633
-0.048537 0.082742 0.083391
-0.023630 0.025907 0.095043
-0.014374 -0.096993 -0.063657
-0.031649 -0.031321 -0.090168
0.026478 0.082643 0.000706
0.094779 0.025673 0.076908
-0.070789 0.063678 -0.066466
-0.038981 -0.089218 -0.049098
-0.026581 0.091287 0.055087
0.066076 -0.069700 -0.090069
0.029523 0.062007 -0.090172
0.019327 -0.002924 0.094938
-0.092838 -0.007864 0.008519
-0.010985 0.093716 -0.031440
0.090337 -0.000687 0.095050
-0.058173 0.074759 -0.027701
-0.057319 -0.077530 0.035714
0.090478 0.003473 -0.090223
0.002085 -0.097984 0.057295
-0.095296 0.006401 0.064794
0.084810 0.050510 0.064565
0.013959 -0.095175 0.037052
-0.050187 -0.010351 0.095074
-0.020947 0.082346 0.003931
0.036353 -0.061649 0.003933
0.007914 -0.097181 -0.055579
0.045854 0.078709 -0.090203
-0.038770 0.079598 0.095006
0.004680 -0.098447 -0.090188
0.090747 0.037526 0.034036
-0.027707 -0.062057 0.000727
-0.040258 -0.088715 0.067639
-0.013309 -0.095534 0.013946
0.017401 -0.051066 0.003967
0.051052 0.081965 -0.014628
-0.082009 -0.050102 -0.047215
-0.093795 -0.004658 -0.012552
0.050495 -0.052251 -0.090223
0.040230 -0.090178 -0.084280
0.056351 0.078786 0.031783
-0.089739 0.033226 -0.082189
-0.059631 0.074089 0.046055
-0.055515 0.054382 -0.090214
-0.046824 -0.084169 -0.009422
0.058884 -0.064658 0.094950
-0.041255 0.027996 -0.090210
0.044979 -0.019459 0.094887
0.029980 -0.059951 0.095066
-0.078478 0.054965 -0.088467
0.089212 -0.024261 0.094981
0.012919 -0.027460 0.000721
0.004944 0.095475 0.000040
0.058170 -0.064094 0.004044
0.068508 -0.070097 0.044281
0.039952 0.088375 -0.023195
0.035440 -0.092051 0.078703
-0.003707 0.097004 -0.084679
0.040472 -0.088961 0.033391
0.022568 -0.095475 0.094154
0.001477 -0.096960 -0.011955
-0.068515 0.064570 -0.021781
0.090211 -0.037473 -0.016866
0.040423 0.020660 -0.090223
-0.073620 0.027144 -0.090223
-0.005911 -0.065430 -0.090197
0.025141 0.003006 -0.090223
-0.041664 0.085196 -0.026443
0.055697 0.039827 0.000834
-0.095760 0.001469 0.082736
-0.091812 -0.027538 -0.089958
-0.050616 -0.083497 0.084252
-0.009605 0.039444 -0.090223
-0.058880 0.066442 0.004091
0.013319 0.078248 0.000720
-0.030930 0.090352 -0.048896
-0.041963 0.085244 0.034327
0.016936 0.042977 -0.090223
-0.081472 -0.028398 0.095006
-0.094127 -0.012633 -0.068906
0.019355 -0.068399 0.003984
0.011689 -0.097337 0.086422
0.017894 0.094834 -0.033087
-0.007544 -0.036269 0.095074
-0.026710 0.059247 0.000760
-0.066220 0.067684 0.054784
-0.053836 0.052498 0.004064
0.093118 -0.031157 -0.028151
0.084557 0.031858 0.094925
-0.095707 0.003947 -0.083725
-0.035276 -0.006525 -0.090188
0.064705 -0.073809 -0.051303
-0.051295 0.080855 -0.090223
0.012245 0.069045 -0.090164
0.043202 -0.075374 0.000788
-0.028108 -0.042019 0.095044
0.014054 -0.095213 -0.034001
0.055683 0.064915 0.000807
0.070809 0.051072 0.000887
0.078599 -0.054008 0.000479
0.054060 0.082287 -0.072593
0.059137 -0.021038 -0.090223
-0.094684 0.001654 -0.033196
-0.011591 0.089647 -0.090172
0.069879 -0.067524 0.020254
0.029951 0.011436 0.095005
0.058236 -0.036393 0.094865
0.086181 0.047988 0.051754
0.003179 0.097194 0.084805
0.090251 0.038013 0.020655
0.070723 -0.061580 0.094887
-0.043711 -0.075848 -0.090152
-0.065695 0.028477 0.095074
0.046255 -0.086767 0.052520
-0.078497 -0.054875 -0.031138
-0.053203 0.078856 0.058507
0.069276 0.016141 -0.090223
-0.007614 0.004560 0.003975
0.086810 -0.045765 0.094864
-0.004725 0.095293 0.045672
0.064564 -0.073733 -0.038372
0.056514 0.080012 -0.055923
-0.077694 0.053417 0.018178
-0.061537 0.011995 -0.090223
-0.063778 0.070499 -0.047488
-0.045882 0.068575 0.095057
-0.089794 0.031684 0.083468
0.030858 0.000766 0.094953
0.082496 0.052576 -0.031405
0.091805 -0.036195 -0.054040
-0.088754 -0.035517 0.053393
-0.092452 0.012258 -0.010500
-0.076423 0.012208 0.004108
-0.087347 -0.041343 -0.081813
0.027194 -0.046812 0.000802
-0.088878 -0.027875 -0.007112
-0.017562 -0.011988 -0.090215
0.074556 0.013318 0.000897
0.038062 -0.089967 -0.032728
0.043382 0.054166 0.000765
-0.004612 0.094434 0.020121
-0.083818 0.041107 -0.007646
0.094388 -0.024082 -0.002273
-0.036929 0.088387 -0.065781
-0.048580 -0.083386 0.036879
0.067976 -0.015305 0.094970
0.070224 -0.039701 0.004035
0.000566 -0.086848 0.000734
0.065222 0.073338 0.056170
0.088752 -0.043459 0.072076
-0.031136 -0.087432 0.094830
0.022172 -0.010907 -0.090223
0.074208 -0.065219 0.075069
0.043476 0.087207 -0.046665
-0.028875 -0.062562 0.094962
0.052318 0.078434 0.094758
0.060730 -0.060672 -0.090223
0.000506 -0.023849 -0.090223
-0.043551 0.055133 0.004026
-0.003342 -0.084321 0.094935
-0.064447 0.043062 0.004112
-0.076910 -0.025028 0.003966
-0.063252 -0.070207 0.094954
-0.000916 -0.040248 -0.090217
-0.026488 0.030389 0.000741
0.099123 0.007264 0.092121
-0.092998 -0.006746 -0.001822
-0.087627 -0.033165 0.006884
0.027899 0.033766 0.003878
-0.067670 0.067761 -0.079435
-0.058374 -0.078228 -0.072235
0.092368 0.036482 -0.083968
-0.089313 -0.036283 0.077957
-0.074075 0.059220 0.058580
-0.061382 -0.075680 0.076696
-0.076277 -0.059864 0.081400
-0.007548 0.095834 -0.072972
-0.026238 -0.082427 0.004003
0.086825 -0.044653 0.027109
0.022619 -0.005378 0.003917
0.031551 -0.019309 0.094933
-0.049490 -0.017687 -0.090182
-0.088289 0.029823 0.004166
-0.003905 -0.017994 0.000738
-0.047519 0.081189 -0.000291
-0.047145 0.060177 -0.090223
0.060296 0.019041 0.000876
0.097498 0.004146 0.028402
0.039184 -0.017329 0.000823
-0.030637 0.088785 -0.002116
0.038069 0.012787 0.000786
-0.031130 -0.093303 -0.065594
0.095629 0.014169 -0.029047
0.097673 0.010558 0.070502
0.032639 -0.045518 -0.090223
0.043831 0.027896 0.003853
-0.080830 -0.052576 0.061914
-0.005440 0.024537 0.000739
0.093548 0.028898 0.060366
-0.035690 0.023138 0.095074
0.096355 -0.019341 -0.044106
0.064771 0.073471 -0.051077
0.003907 -0.029298 0.000730
-0.041471 -0.054995 0.094961
-0.010687 0.071963 -0.090182
-0.027616 0.076022 -0.090203
-0.049298 -0.074810 0.004015
-0.060566 0.074274 0.076935
-0.028209 0.092016 0.084625
-0.089363 0.031300 -0.039190
0.081558 -0.055306 -0.052202
0.075338 -0.063672 -0.071165
0.022172 -0.095208 -0.080658
-0.018247 -0.095807 0.049569
-0.079142 0.053372 0.094636
-0.077433 0.028456 0.095074
-0.035986 0.067097 0.003985
-0.066490 0.046683 0.095074
0.088801 -0.042641 0.059531
0.066266 -0.007735 0.003839
0.053550 0.002687 0.095023
0.018459 0.091600 0.094834
-0.018801 -0.096612 -0.088264
-0.028070 -0.033895 0.004027
0.054531 0.055047 -0.090168
-0.021096 -0.019278 0.004052
0.058588 0.043920 0.094938
0.027836 -0.073500 -0.090223
0.083284 0.051172 0.029810
0.097155 0.002734 0.010567
0.025159 0.070745 -0.090141
-0.014745 -0.049438 -0.090193
-0.066884 -0.020744 0.003952
-0.077115 -0.038396 0.094994
-0.081239 -0.051328 0.050543
0.090564 0.023859 0.003866
-0.089589 0.031485 0.063125
0.034256 -0.090763 0.026132
-0.033627 -0.029994 0.095074
0.050150 -0.044276 0.094926
0.039174 0.090032 -0.070076
-0.059153 -0.076380 -0.035905
0.020051 0.011235 -0.090223
0.056699 -0.080012 -0.070240
-0.021161 -0.054384 0.095002
-0.048234 -0.084003 -0.034891
0.034598 0.092406 -0.079962
-0.059685 -0.036991 0.003966
0.060938 0.077769 0.090458
0.040447 -0.086253 0.003962
0.065015 0.011692 0.095053
0.002190 0.096669 0.058186
-0.017944 -0.042821 0.004013
0.093828 -0.031814 -0.075093
0.004807 0.096571 -0.049094
-0.018604 0.067774 0.095004
0.097917 0.000614 -0.021454
0.079258 0.056325 -0.016026
0.010461 0.095298 0.021754
0.075708 0.063334 -0.058530
-0.064536 -0.063970 -0.090223
-0.089344 -0.030945 0.043510
0.042363 -0.059883 -0.090223
0.075133 0.061377 0.008081
-0.091576 -0.026443 0.081294
0.091470 0.030863 0.011777
-0.027249 0.089807 -0.012154
-0.011392 -0.075944 0.094948
-0.035523 -0.090553 0.041410
-0.028343 0.056964 -0.090223
-0.065787 -0.069736 0.014810
0.077298 -0.027588 -0.090223
0.086197 -0.029769 0.004126
0.019692 0.095391 -0.064991
0.045650 0.073723 0.003918
0.059930 0.076119 0.023427
-0.001422 -0.050352 0.095074
0.005635 -0.056876 0.095074
-0.034434 -0.088836 0.004021
0.056258 -0.079886 0.037047
0.020341 0.054555 0.003877
0.023828 -0.049232 -0.090223
0.017605 -0.094086 -0.021842
-0.033870 0.088840 0.031176
0.090043 0.040230 -0.050011
0.073710 -0.049229 0.094835
0.012727 -0.095903 0.051055
0.097812 -0.011854 0.047105
0.077407 -0.049079 -0.090220
-0.065404 0.028201 0.000617
-0.080776 -0.052950 -0.064632
0.024338 0.023850 0.095051
-0.005946 -0.097302 -0.033478
-0.094100 0.009552 0.031550
0.001147 -0.038561 0.000733
0.082126 -0.052395 0.009570
-0.027475 -0.092413 -0.003587
-0.046247 -0.054720 0.003977
0.027045 0.093652 0.058693
0.031889 0.090782 -0.001784
-0.071598 0.062534 0.073829
0.027521 0.092459 0.023698
-0.015263 -0.095806 -0.025588
-0.036505 0.088508 0.062138
-0.044454 0.006523 0.000610
-0.007101 0.061913 -0.090212
0.083070 0.008974 -0.090223
0.006099 0.038479 0.000728
-0.093448 0.008310 0.006946
-0.035334 0.089370 -0.080170
-0.072718 -0.048779 0.000731
0.068869 0.070774 0.074622
0.043748 0.085874 -0.000450
-0.083239 -0.045209 0.007995
-0.066290 -0.070865 -0.056420
-0.082637 0.046126 -0.050851
-0.071718 -0.063767 -0.021950
0.093935 -0.030526 0.062084
-0.025718 0.092472 -0.080080
-0.048504 0.081303 -0.031008
0.068866 0.042695 0.003797
-0.046719 0.025224 0.000606
-0.038217 -0.042476 0.095012
-0.048970 -0.082291 0.016977
0.004622 -0.071027 0.003955
-0.025596 -0.093231 0.018815
-0.035046 -0.019538 0.000646
-0.092766 -0.018008 0.065752
-0.009710 0.095698 0.085905
-0.084406 -0.016619 0.000758
-0.023725 -0.071204 -0.090143
-0.023011 0.038326 0.095002
0.045202 -0.086309 0.022858
0.067986 -0.019469 -0.090223
-0.015038 -0.026114 0.004042
0.051407 -0.073714 0.004028
0.073297 -0.064344 -0.027308
-0.091122 0.028298 -0.070835
0.004305 -0.066087 -0.090208
0.051475 -0.084117 0.072364
0.051082 0.083290 -0.049607
0.029231 -0.036020 -0.090223
0.048875 -0.084330 -0.015435
-0.076986 0.055341 -0.043662
-0.037645 -0.090321 0.076268
-0.062613 -0.004817 0.004068
-0.095245 -0.008554 0.080521
-0.042084 -0.040650 0.000716
0.034397 -0.080817 0.095063
0.026178 0.042490 0.003875
-0.083828 0.044954 0.069739
-0.002969 0.050705 0.000737
0.046747 -0.085206 0.012830
0.097384 -0.017215 -0.072636
-0.050331 -0.050959 0.094951
-0.004958 0.021728 -0.090223
-0.042882 0.086065 0.072959
0.069543 0.067858 0.005843
