0.015211 0.010472 -0.130057
-0.101300 -0.098648 0.049099
0.112187 0.079756 0.121227
-0.052584 0.126556 0.027515
0.109075 -0.086975 0.029436
-0.079882 0.014328 0.137046
0.104981 0.086098 -0.039690
-0.139490 0.000479 -0.073958
0.017739 -0.074043 0.137013
-0.005021 -0.141405 -0.100008
-0.005948 -0.005403 0.005692
-0.019201 0.135667 -0.090239
0.099853 -0.002786 -0.130018
-0.126160 -0.063479 0.083572
-0.011136 0.111978 0.136958
0.135435 -0.039354 0.122312
-0.109391 0.011764 -0.130027
-0.004352 -0.125436 0.005677
0.098824 -0.102431 -0.130029
0.130406 0.042357 0.054006
-0.103696 -0.097843 -0.128143
0.118072 0.070665 0.084530
-0.115828 0.078808 0.083245
0.136806 -0.017820 -0.062851
0.040036 0.131422 0.098677
0.020754 -0.139797 0.086920
-0.084154 -0.046158 0.136931
-0.088418 0.015721 0.005709
-0.049604 0.128401 -0.041349
0.066888 0.104255 -0.130057
-0.016875 0.022969 0.137050
0.021887 0.095281 0.000981
-0.052944 -0.130603 -0.031048
-0.129790 -0.053690 -0.031493
-0.107910 0.089817 -0.084144
0.136249 -0.003353 0.066711
-0.029281 -0.049454 -0.130057
0.091932 0.009621 0.001082
0.082364 -0.115217 0.074980
-0.052223 0.083805 -0.130015
0.084465 -0.112721 -0.044786
-0.048690 -0.131990 0.136980
-0.139975 -0.009459 0.103317
0.045557 0.128213 0.055460
-0.079086 -0.078872 0.005763
0.044515 -0.085166 0.001186
0.076020 0.014334 0.137047
0.046808 0.127842 -0.061534
-0.043318 0.060505 0.005734
-0.119524 0.071711 -0.020730
-0.070521 0.120334 0.091441
0.062575 -0.001919 0.137041
0.130190 0.047307 -0.126624
0.050701 -0.131928 -0.045958
0.134018 0.023742 -0.019258
0.037503 -0.121162 -0.130004
0.087206 -0.076255 0.136753
-0.136633 0.030447 0.036128
-0.064171 0.083027 0.136858
-0.107617 -0.093487 0.111954
0.047001 -0.052680 -0.130056
-0.034680 0.100681 0.001085
-0.019339 0.073044 -0.129985
0.017906 -0.138236 0.037827
-0.128299 -0.021338 -0.130057
-0.065286 -0.121651 -0.130057
0.059274 0.082471 0.137050
-0.044839 -0.134235 0.059572
-0.048766 0.017813 -0.130043
0.117207 0.072995 -0.124242
0.094967 0.097115 0.021335
-0.136549 -0.031101 0.022861
-0.035078 -0.034191 0.001117
-0.098894 0.097060 -0.016793
0.130222 -0.054332 -0.117102
-0.098323 0.098917 0.067595
0.123287 0.061086 0.104295
-0.096054 0.102691 -0.130038
0.061969 -0.124830 0.136722
0.132119 -0.033351 0.005756
0.138367 -0.002637 0.128838
-0.002533 0.135050 0.061292
0.051586 0.043912 0.000983
0.124655 -0.065168 0.082563
-0.094805 -0.105744 -0.061925
-0.128015 -0.059890 -0.093573
0.007774 -0.138991 -0.042638
0.118374 -0.074725 -0.034037
-0.129748 0.048962 0.136725
0.076712 -0.041416 0.005587
0.050291 -0.102932 0.005481
-0.138150 0.010342 -0.025114
0.078783 0.111700 0.086820
0.003654 0.133825 -0.011721
-0.067230 -0.006901 0.137050
0.077785 0.112182 -0.075811
-0.134970 0.042874 -0.101640
0.131188 0.041330 -0.069481
0.126096 0.050884 0.028449
0.065653 -0.126160 -0.095091
0.023751 -0.066106 -0.130057
-0.037600 -0.066509 0.136810
-0.019423 0.135876 0.103514
0.008600 -0.138101 0.136853
-0.018770 0.077208 0.137050
-0.064283 -0.125436 0.018473
-0.123330 -0.067143 0.022992
0.034270 0.133521 -0.110263
-0.023826 -0.102264 -0.130057
0.003560 -0.019250 0.136863
0.070598 0.114610 -0.009895
-0.065187 -0.126587 -0.085819
-0.102811 -0.063530 -0.130057
-0.054419 0.008826 0.005777
-0.107067 0.087335 0.024075
-0.007651 -0.073661 0.001230
0.053987 0.057503 -0.130026
-0.136685 0.035498 0.083585
-0.135784 -0.038264 -0.053426
0.022681 -0.041873 0.005609
-0.014325 0.123963 -0.130057
0.078702 0.113224 0.133921
-0.077439 -0.119802 0.105080
-0.132902 -0.052013 0.136777
-0.005599 0.042023 0.000979
0.138078 -0.003271 -0.113819
0.019161 0.050714 0.137050
-0.130261 0.052611 -0.067139
-0.092222 0.062172 -0.129905
-0.107700 0.011598 0.136914
0.137614 -0.023346 0.094928
-0.101733 0.094954 -0.039754
0.125963 -0.062252 -0.076363
-0.074169 0.118528 -0.083658
0.049970 -0.049018 0.136950
0.027913 0.085885 -0.130057
-0.094431 -0.036894 0.001157
-0.113198 0.079183 0.136751
-0.076186 -0.026844 -0.130057
0.039800 0.128946 -0.030368
-0.110919 -0.084793 -0.008484
0.093519 0.057215 0.000908
-0.002864 0.134721 -0.045093
0.120790 0.042294 0.136965
-0.089923 0.055203 0.001068
-0.078764 -0.094932 0.136719
-0.055022 0.128798 0.134003
-0.036030 -0.096535 0.005643
0.068665 -0.122369 0.029717
0.082511 0.108359 0.067192
0.098073 -0.102208 0.111484
-0.071019 -0.121774 0.035057
0.048630 -0.009193 0.005661
-0.062050 -0.075842 -0.130057
-0.058207 0.053126 0.136966
0.090727 -0.050848 -0.129955
0.009769 0.134227 0.023956
0.015504 0.135402 0.136979
0.112016 0.079154 -0.079756
-0.033728 -0.137961 -0.067718
-0.116791 0.009000 0.001083
0.131396 -0.044020 0.042650
0.078981 0.031025 -0.130057
0.014681 -0.023055 -0.130057
-0.075754 0.088048 0.005759
-0.138613 -0.007152 0.061936
-0.017254 -0.141958 0.118274
0.135467 0.027368 0.097659
-0.088100 -0.109100 -0.014748
-0.100762 0.097880 0.098293
0.134435 0.027141 -0.044839
0.063598 -0.015095 -0.130057
-0.063887 0.124484 -0.123686
-0.008975 0.083205 0.001002
0.093039 -0.078989 0.001076
-0.002401 -0.012246 -0.130057
0.095739 -0.104277 -0.091963
-0.081448 -0.110659 -0.129924
0.028980 -0.139468 -0.083955
0.094806 -0.041471 0.136822
0.118677 -0.076712 0.128955
-0.023744 -0.139084 0.032463
-0.140605 0.002424 -0.105033
0.102814 0.090298 0.092882
0.059275 0.080900 0.005940
0.063403 -0.124731 -0.014918
-0.045459 0.130713 0.069206
-0.031612 -0.023351 0.136924
-0.020203 -0.110580 0.137030
0.063702 -0.090940 -0.129984
0.028447 0.022125 0.005758
0.006016 -0.138252 -0.130034
-0.119936 0.075394 -0.117889
0.112679 0.074632 0.021992
0.021419 0.074037 0.137050
-0.128032 0.056921 0.052671
0.036592 -0.137246 0.071749
0.030404 -0.124966 0.005467
-0.015023 0.033719 -0.130038
0.042434 0.128426 0.017744
0.044294 0.031673 0.137022
-0.031691 -0.139753 -0.126089
0.135640 0.027390 -0.105837
-0.017496 -0.138950 -0.014818
0.134383 0.002374 0.016944
-0.105252 -0.091781 0.009395
0.119218 0.065118 -0.009562
-0.136516 -0.041018 0.112287
-0.120182 0.047524 0.005772
-0.029456 0.133592 0.046621
-0.046634 -0.017049 0.001067
0.090888 0.102810 -0.109233
0.107319 -0.069603 -0.130046
-0.086898 0.110863 0.128461
0.134781 0.010227 0.036028
-0.034560 -0.138394 0.088123
-0.070236 0.118263 -0.011525
0.050907 0.126402 0.076912
-0.051467 0.128973 -0.078575
-0.105746 -0.094720 -0.093219
0.111511 -0.015358 0.005635
-0.085023 -0.112438 -0.041556
0.047225 0.113140 0.137050
0.090551 0.061888 0.137050
-0.048992 0.096016 0.005731
-0.119505 -0.075547 -0.054093
0.135899 -0.024718 -0.029564
-0.114453 -0.076742 0.136849
-0.102938 -0.016385 0.137050
-0.094512 0.103098 -0.077730
0.049496 -0.089355 0.136862
0.028822 0.123056 -0.130057
-0.073932 0.005898 -0.130047
0.108564 -0.089324 0.072082
0.065578 -0.058796 0.005559
-0.000164 -0.036358 0.001065
-0.011507 0.018187 0.005776
0.051145 -0.133171 0.105168
0.028590 0.066177 0.000877
-0.049711 -0.064551 0.001223
-0.029395 0.132698 -0.013237
0.039381 -0.137565 -0.113650
0.065178 0.121842 -0.124638
-0.057408 0.049878 -0.129972
-0.003864 -0.040467 0.136875
-0.137941 0.031375 -0.076990
0.119236 -0.065013 0.001012
0.009451 -0.100736 0.001311
0.033703 -0.137072 -0.022338
-0.077351 0.035767 0.005701
-0.081951 0.112872 0.066234
0.129954 0.045390 0.079093
-0.013737 -0.140549 0.071585
0.113548 -0.012739 0.136800
0.026116 -0.006400 0.136894
-0.042441 -0.098741 0.136900
0.078588 -0.108551 0.136699
-0.059383 -0.040779 0.136901
-0.133636 0.040222 -0.029282
0.018242 0.135846 -0.073345
-0.137040 -0.020124 -0.020715
0.019643 0.110798 0.137050
0.119129 0.067451 0.056295
-0.115591 -0.081306 0.065894
-0.140297 0.021953 0.120751
0.116479 0.035081 0.001058
-0.075195 -0.120072 0.063506
-0.071072 0.089190 -0.130028
0.057657 0.123843 0.108635
0.099858 -0.096785 -0.018239
-0.098538 0.046914 0.136859
0.069292 -0.118866 -0.129903
-0.138289 -0.000415 0.136851
-0.122250 0.047859 -0.129932
-0.138329 -0.030606 -0.089350
-0.000471 0.136223 0.092812
0.123502 0.057425 -0.042378
-0.021839 0.003853 -0.130057
-0.137968 0.009966 0.026893
-0.007363 -0.140660 -0.075673
0.135695 -0.004687 -0.042285
-0.084603 0.109091 0.017507
0.084188 -0.108718 0.005779
0.020619 0.129224 0.001090
-0.044540 -0.027444 -0.130057
-0.016925 -0.099812 0.005544
0.114956 -0.030808 -0.130014
0.085476 0.082252 0.137050
0.067669 0.117608 -0.037525
0.085324 0.061843 -0.130034
-0.080020 -0.022300 0.001147
-0.046687 -0.112908 -0.130057
0.022213 -0.066014 0.001147
-0.130853 -0.055083 -0.123604
0.000700 -0.089771 -0.130057
-0.040723 0.027727 0.137050
0.000120 0.137145 -0.113025
-0.003841 -0.053682 -0.130057
0.136224 0.011534 -0.072869
0.053248 0.014528 -0.130057
-0.119329 0.075073 0.107197
-0.036699 -0.135563 -0.005237
-0.074290 -0.100595 0.000825
0.109512 0.012266 0.136900
0.007066 -0.108280 0.136923
0.018530 -0.048934 0.137004
-0.085991 -0.113820 -0.103048
0.066912 0.056351 0.005847
0.045570 -0.133809 0.040133
0.116262 -0.080670 -0.111322
0.044136 0.107240 0.005950
0.007425 0.059510 -0.129986
0.003378 0.098682 -0.130057
0.027347 0.043892 -0.130042
-0.029548 0.135983 -0.114433
0.077451 -0.011682 0.005643
0.063901 -0.083393 0.001145
-0.035675 0.030572 0.005839
0.104416 -0.044591 0.005644
-0.017936 0.067182 0.000969
0.092285 0.102593 0.117801
-0.123278 0.065561 0.025911
-0.015902 0.132801 0.008949
0.102603 0.089333 0.063575
0.031044 -0.128368 0.136821
0.073114 0.114033 0.031193
-0.052155 -0.133019 0.116717
0.090546 -0.107335 0.042193
-0.029101 -0.078382 -0.130057
-0.039173 0.083552 0.136952
-0.000924 0.051581 0.137050
-0.093601 -0.107499 0.087872
0.102410 -0.095384 -0.045087
-0.117440 0.076169 -0.055824
0.091733 0.100271 -0.020579
-0.124061 -0.032571 0.005691
-0.060458 -0.128952 0.083082
-0.082884 0.111679 -0.046333
0.031924 -0.091880 -0.130041
-0.091464 -0.069176 0.136834
-0.049308 0.130584 0.108139
0.053602 0.125844 -0.091588
-0.114191 0.080079 0.057303
-0.032886 0.114772 0.136966
-0.051764 0.122296 0.001041
-0.136569 -0.034541 0.050760
0.120115 0.007054 -0.130011
0.072929 0.027105 0.005740
0.086319 0.080931 0.000814
0.046150 -0.037562 0.001028
0.018346 0.020897 0.137028
0.028488 0.133843 0.064191
0.124490 -0.063621 0.055943
-0.137042 0.004776 -0.130024
0.083409 0.107359 -0.048047
0.135828 -0.030582 0.067562
-0.139830 -0.028126 0.133341
0.022052 -0.004847 0.005681
-0.061227 -0.040270 0.001188
0.072849 -0.121832 -0.070305
-0.105597 -0.014290 0.001125
0.021107 0.134693 -0.040218
0.013123 -0.141103 0.117046
0.115858 0.004741 0.001081
-0.106246 -0.045629 0.136985
-0.079017 0.114291 0.040080
-0.007212 -0.141090 0.094275
-0.063886 0.053960 0.005705
0.013053 -0.137692 -0.009779
0.125462 -0.065238 0.108483
0.020183 0.136280 0.109003
0.061509 -0.127002 0.062257
-0.132605 0.049309 0.106329
-0.023767 -0.087544 0.136947
0.052136 0.124291 -0.008736
0.103864 0.034983 -0.130057
-0.085455 -0.084184 -0.130057
-0.040111 -0.136808 -0.093084
-0.039101 0.114600 -0.130057
0.134785 -0.004643 -0.015437
-0.065658 -0.048280 -0.130057
0.039176 -0.013319 -0.130057
-0.127621 -0.060012 -0.067245
-0.073148 0.039819 0.136952
0.042960 -0.060215 0.001087
-0.135728 0.036527 -0.129960
0.135812 -0.014971 0.042915
0.084351 -0.081754 -0.129917
0.123242 0.060547 -0.084527
0.055535 -0.128199 0.007784
0.128237 -0.054590 -0.047448
-0.015555 0.137133 0.135559
-0.112977 -0.085936 0.091450
-0.001434 -0.113980 -0.130057
0.137379 -0.026398 -0.102322
-0.022053 0.134619 -0.062263
-0.112179 0.081117 -0.000423
-0.136846 0.026612 0.007509
-0.062139 -0.127518 -0.054984
-0.071946 0.028655 -0.130020
-0.137036 -0.004941 -0.006437
0.046729 0.061706 0.137050
0.133343 0.025804 0.008114
-0.042509 -0.000028 0.137050
0.087397 -0.008377 0.136947
-0.108021 -0.057797 0.005763
-0.029276 0.050586 0.137050
-0.001542 0.137000 0.116278
-0.069872 0.068563 -0.129916
-0.085080 0.111804 -0.105585
0.136375 0.027198 0.136573
-0.137266 -0.037335 -0.114768
0.136875 0.003338 0.091000
0.076316 0.006604 -0.130057
-0.056706 0.127392 -0.103315
-0.074247 -0.122664 0.129204
-0.006018 0.110987 0.001084
0.053279 0.018057 0.001084
0.128352 0.045245 -0.010748
0.041569 -0.025386 0.137027
-0.139656 0.013158 0.073804
-0.134318 -0.044616 0.069317
0.082666 0.085494 -0.130057
0.135480 0.021098 0.065689
0.102558 -0.095802 0.136574
0.071481 0.106854 0.006022
-0.057088 -0.085599 0.005684
-0.097277 -0.009783 -0.130057
0.052410 0.086047 -0.130057
0.131647 -0.013458 -0.129977
-0.021619 -0.054466 0.001176
-0.082914 0.113572 0.111517
0.137894 0.019006 -0.128516
0.113685 -0.083912 0.105531
-0.138158 0.026702 -0.048066
-0.137625 -0.033639 0.089087
-0.042744 -0.133960 0.017674
0.073285 0.116251 -0.103702
0.099923 -0.099217 -0.068745
0.009824 0.050819 0.000926
-0.099564 -0.104069 0.132582
-0.080429 0.070543 0.136848
0.123712 0.061514 0.129900
0.070109 0.008131 0.005685
-0.110221 -0.087038 -0.035595
-0.047444 -0.116426 0.000904
0.132349 0.042255 0.115649
-0.015939 -0.139856 -0.042985
-0.079642 -0.117288 -0.068237
0.118864 -0.073008 -0.010437
0.018429 -0.107421 -0.130045
-0.117683 -0.080753 -0.121179
0.120748 -0.072560 -0.060483
-0.090879 -0.057597 0.001179
0.096495 0.039640 0.137043
-0.132175 0.042904 0.017140
0.101818 0.090688 -0.061273
-0.138508 -0.018624 -0.062640
-0.031777 -0.073646 0.001248
0.090481 -0.057186 0.005574
0.005182 -0.014743 0.005669
-0.091299 -0.107005 0.029775
0.092846 -0.026664 0.005608
0.082407 -0.116058 0.101498
0.047448 -0.112339 0.136811
0.137294 -0.009978 -0.084613
0.024112 -0.137262 0.015587
-0.025802 0.134453 0.068179
0.066702 -0.065915 0.136867
-0.102810 0.040520 -0.129971
-0.111309 0.027324 0.001044
0.128885 -0.049424 0.017267
-0.057681 -0.077296 0.136754
-0.031727 0.010849 0.005766
0.027059 -0.138940 -0.061405
-0.057493 -0.128087 -0.000086
-0.125010 0.060488 -0.002142
0.112823 0.079085 -0.102912
-0.126819 0.058877 -0.036387
-0.095571 0.100855 0.047964
0.099295 0.085303 -0.130057
-0.043211 -0.134381 0.041102
0.110004 0.021595 0.005693
-0.035862 0.038811 -0.130018
-0.095683 0.093040 0.005795
0.055960 0.037937 -0.130057
-0.137634 -0.015076 0.040384
0.092219 0.095745 0.000728
-0.107014 0.091555 0.126589
-0.047352 -0.134640 -0.112351
-0.108283 -0.091046 -0.066123
-0.119577 -0.076942 0.118018
-0.070910 -0.121660 -0.022458
0.092296 0.034562 0.005750
0.108624 0.080723 0.042893
0.047520 -0.134235 -0.074461
0.009880 0.020699 0.005767
0.012027 0.134324 -0.130057
0.006909 0.134904 0.046850
0.113631 -0.081767 0.049780
0.037841 -0.031131 -0.130057
0.095948 -0.103439 0.086801
0.067735 -0.022781 0.136965
-0.078812 0.065506 0.001076
0.020593 -0.140381 -0.097181
-0.133301 -0.042874 -0.014136
0.119710 -0.032488 0.136744
-0.118364 -0.078737 -0.093232
0.004134 -0.052295 0.005598
-0.136960 -0.011265 0.016889
0.068974 0.117196 0.049808
-0.123840 0.025080 0.136836
0.001525 0.008264 -0.130057
0.033779 0.132857 -0.087142
-0.058716 0.125016 0.054054
-0.038366 0.132749 -0.060168
-0.095099 -0.105583 0.067868
-0.122484 -0.069621 0.050448
0.131573 0.042102 -0.091782
0.045309 0.127804 0.035916
0.012575 -0.121839 0.005549
-0.125890 0.065472 -0.100706
0.067085 -0.114858 0.005529
-0.134321 0.035873 -0.010037
0.087299 0.102330 -0.129860
0.117782 0.069947 -0.066080
-0.000458 0.136129 -0.083917
-0.101778 0.038745 0.005735
0.136252 -0.035399 -0.122727
-0.024387 -0.029394 -0.130057
0.128165 -0.009345 0.001070
-0.060432 0.075418 0.001076
-0.013650 -0.134028 0.136934
-0.060715 -0.128071 0.051723
-0.016186 0.104159 -0.130057
-0.023543 0.047246 0.005877
-0.040623 0.132883 -0.093411
0.080401 -0.115408 -0.024989
0.009687 -0.080385 0.001227
-0.059263 0.026090 0.005806
0.098620 -0.097360 0.010504
0.033297 0.040358 0.005818
0.112207 0.076327 -0.023656
0.026362 -0.085193 0.005525
-0.024570 0.133111 0.027263
0.137808 -0.006835 0.109337
-0.140368 0.021971 -0.117672
0.079677 -0.073933 0.005534
0.130410 -0.054551 0.133862
-0.070684 -0.060520 0.136829
0.093408 0.100160 -0.078025
-0.034459 0.060051 -0.129954
-0.092389 0.072916 0.005766
0.039447 0.082374 0.137050
-0.082518 -0.004418 0.001078
0.017329 0.091451 0.137050
-0.020542 -0.007085 0.136979
0.126193 -0.057186 -0.012620
-0.069502 0.007523 0.001055
0.029118 -0.139744 0.105911
0.134131 -0.039609 0.083669
-0.026139 0.115749 0.005726
0.121632 0.059653 0.011680
-0.112506 -0.046752 -0.130057
-0.069018 -0.095835 -0.130057
0.031780 0.025083 -0.130057
0.044619 0.130038 -0.125510
-0.036637 0.134511 0.132791
-0.090438 0.023723 -0.130020
-0.033027 -0.139316 0.107176
0.108562 0.057342 0.137048
0.064443 -0.044859 -0.130039
0.030748 0.113197 0.001021
-0.009766 -0.058619 0.136911
-0.109476 0.089645 -0.129740
-0.027652 0.079482 0.001026
0.008642 0.001109 0.136952
0.097692 -0.100492 0.061194
-0.120977 -0.072199 -0.034882
-0.114746 0.081791 -0.097800
-0.056814 -0.111112 0.136877
0.024371 -0.141116 -0.122883
-0.051113 0.109877 0.136949
-0.099870 -0.100008 -0.044676
-0.048452 -0.088923 -0.130057
0.050873 -0.134093 -0.126956
-0.055016 -0.022463 0.136982
-0.038176 -0.009741 -0.130057
-0.136301 -0.023118 -0.001680
0.084890 -0.114041 -0.103725
-0.125394 0.065259 -0.082020
-0.028794 0.134996 0.087396
-0.064496 0.102556 0.001053
-0.013912 0.133600 -0.023604
0.068609 -0.124982 0.110204
0.121958 -0.072407 -0.095685
-0.080605 0.047684 -0.129962
-0.102160 0.095424 -0.062665
-0.074120 -0.048110 0.001186
0.040281 0.090557 0.000932
-0.131249 -0.048346 0.007247
-0.140406 0.012701 -0.089627
-0.071352 -0.118859 0.000783
-0.038613 -0.002475 0.005725
-0.135612 0.036982 0.065269
-0.085468 0.108967 -0.028338
0.045732 0.071868 0.005919
0.079556 -0.090554 0.005566
0.108113 -0.090773 -0.092941
-0.011234 -0.142504 -0.125504
0.134435 0.026635 0.044197
0.011718 0.034344 -0.130047
0.034305 -0.020545 0.005645
-0.067567 0.119400 0.009640
0.065599 -0.027685 0.001042
-0.088954 -0.004693 0.137050
-0.006014 -0.139040 0.036424
-0.063053 0.021158 0.137050
-0.114558 -0.074531 0.005975
-0.139459 0.013753 -0.060641
0.083612 0.106660 0.043954
-0.065305 0.123353 0.112510
-0.129600 0.054721 0.070549
-0.022463 -0.140618 -0.092994
0.054178 0.125991 -0.109622
-0.099172 -0.102326 -0.107388
0.031920 -0.085541 0.136913
-0.138364 -0.027254 0.071757
0.135634 0.025508 -0.084161
-0.026977 -0.121840 0.001007
0.109605 0.051829 0.000948
0.034644 -0.112311 0.001314
0.071903 0.069826 0.137050
0.134444 -0.032598 0.029260
0.090770 0.099286 0.136637
-0.000111 0.016919 0.137050
-0.099443 -0.086749 0.136765
0.004338 0.135535 -0.061366
0.084380 -0.113871 -0.082189
0.051395 -0.131053 -0.026408
0.000196 0.098297 0.137050
-0.022122 -0.002406 0.001053
-0.099241 0.099746 -0.095650
-0.137444 -0.027644 -0.039585
-0.085038 0.095601 0.136866
-0.032021 -0.137185 -0.024446
-0.138627 0.029250 0.099802
-0.046319 -0.044833 -0.130057
-0.124434 -0.035438 0.137050
0.104926 0.080662 0.137050
0.047595 -0.106972 -0.130000
0.108033 -0.049183 -0.130049
0.016963 0.079372 0.005933
0.123166 0.059655 0.071910
0.011304 0.112042 0.001054
0.132996 0.030943 0.024638
-0.129588 0.056427 0.093894
-0.140752 0.007221 0.111710
0.012151 0.136325 0.081807
0.136865 0.009793 -0.090055
-0.046124 0.067764 0.136968
0.078811 0.109691 -0.027010
-0.026377 -0.054026 0.136818
-0.070550 0.121380 0.133400
-0.036886 0.091576 -0.130057
0.123363 0.001337 0.136847
0.135058 -0.014185 0.021386
-0.043562 0.130058 -0.022514
0.135277 -0.034475 -0.066505
0.005624 -0.091227 0.137010
0.076295 -0.121715 0.126008
0.024278 0.133878 0.032987
0.018779 0.035614 0.001027
0.037285 -0.138153 0.124339
0.106108 -0.094156 -0.113592
0.036540 0.003472 -0.130057
0.135525 0.012368 -0.053166
0.110688 -0.087625 0.089259
0.014562 -0.139771 -0.072801
0.000999 0.133392 0.008573
-0.048554 0.130103 0.085824
0.029536 0.133269 -0.061044
0.012219 -0.051901 -0.130057
0.112772 -0.030238 0.005673
-0.049608 -0.129491 -0.130057
-0.086218 -0.066306 -0.130057
0.002421 0.065063 0.005921
-0.023145 -0.137471 0.005707
0.001770 -0.139742 0.065318
0.090737 -0.025320 0.136888
0.021662 -0.022439 0.136930
0.062936 0.121175 -0.053042
0.072199 -0.121614 -0.053721
0.050893 -0.133269 -0.097619
0.124766 -0.061793 -0.032951
-0.030889 0.130588 -0.130026
0.028951 0.135362 0.127345
-0.016322 -0.140514 -0.061858
0.050181 -0.065829 0.136913
-0.129479 0.058795 0.123452
0.135448 -0.027490 0.136791
0.098119 -0.019203 -0.129990
0.123324 -0.065038 0.039579
-0.024926 0.092477 0.136974
0.137155 0.016983 0.110319
-0.137392 0.010949 -0.002160
0.077036 -0.119097 0.059898
0.066456 0.027710 0.136962
0.105412 0.066904 0.005854
0.066998 -0.039206 0.136931
0.067810 0.119256 -0.086643
0.005487 0.075662 -0.130022
0.035424 0.051570 0.137050
0.055515 -0.076791 -0.130022
0.056691 0.123141 0.023888
-0.029974 -0.132472 0.137043
-0.127755 0.062458 -0.124236
0.078580 -0.092166 0.136746
0.019609 -0.025811 0.005641
0.044620 0.055280 0.005861
0.111949 -0.085253 -0.129968
0.004670 -0.138560 -0.026622
0.075879 0.114276 0.102665
-0.117094 -0.077963 0.037512
-0.113380 0.080483 0.037454
-0.126581 -0.063827 0.127493
0.013815 -0.079021 -0.130057
0.102697 0.013224 -0.130036
0.080943 -0.058080 0.136835
-0.123185 -0.068993 -0.080031
-0.033362 0.134372 -0.080592
-0.009003 0.134228 0.043837
0.077801 0.046912 0.000971
0.005939 -0.062947 0.136995
0.126887 0.050788 -0.057094
0.025654 0.132820 -0.013843
-0.051175 -0.049063 0.005628
-0.080318 -0.115981 0.048734
0.038243 0.098478 0.137050
-0.110293 0.060082 0.005774
-0.118694 -0.066415 -0.130011
0.037993 -0.135275 -0.000159
-0.002184 -0.141517 0.112048
0.034110 0.007583 0.136926
0.080271 -0.066188 -0.129967
-0.112256 -0.087895 -0.107825
-0.095003 0.063857 0.136814
0.008177 0.136968 -0.099213
0.134659 -0.030499 -0.009756
0.122694 -0.072739 -0.127093
-0.071631 0.112060 -0.130046
0.094880 0.099330 -0.093865
0.022512 0.064341 -0.129980
-0.040465 -0.082948 0.136854
0.091913 0.014894 0.136990
-0.027001 -0.138931 0.048023
0.084669 -0.111781 0.028107
0.052585 -0.130174 0.023220
-0.126807 0.057690 -0.019123
0.111050 -0.084513 -0.026042
-0.094402 -0.106638 -0.077742
0.105700 0.063827 -0.130045
-0.134449 -0.045652 -0.086422
0.113098 0.076398 -0.052431
0.042488 0.068331 -0.130014
0.008486 0.113621 -0.130057
-0.117482 0.073969 0.013897
-0.060880 -0.012140 0.005709
-0.137736 0.037170 0.130007
-0.036611 -0.057011 0.005606
-0.060726 -0.024039 -0.130057
-0.030336 0.024102 -0.130043
-0.102997 0.031851 0.136882
-0.113054 0.060582 -0.129895
0.114609 -0.078962 0.017156
0.129577 0.043712 -0.037837
-0.122858 -0.015580 0.001111
0.119456 0.036206 -0.130053
0.076401 -0.121507 -0.114515
0.014445 -0.138875 0.053045
0.126741 -0.049623 0.001029
0.001219 0.008709 0.001067
-0.139502 -0.010745 -0.084656
-0.114963 0.053631 0.136772
-0.049428 0.100663 -0.130057
-0.062249 -0.128509 0.105901
0.067361 0.020791 -0.130057
0.019219 -0.038170 -0.130057
0.135061 0.026505 -0.067832
-0.140340 0.017521 0.089954
-0.010470 0.089848 -0.130057
0.099459 0.092317 0.038580
0.062098 0.074094 -0.130057
-0.052821 0.127891 -0.062200
-0.100051 -0.075189 0.005860
-0.059277 -0.129194 -0.069992
0.031674 -0.137889 0.045190
0.075552 -0.118445 -0.007975
-0.120107 -0.073185 -0.012433
-0.136804 -0.040602 -0.129730
-0.133036 0.048618 -0.115707
0.110723 0.077660 -0.007497
0.084818 0.046567 -0.130057
-0.000764 -0.068639 -0.130057
-0.007401 -0.088666 0.001284
-0.048525 -0.133220 0.074575
0.130126 0.045889 0.094282
0.081563 0.029192 0.137026
0.051315 -0.072073 0.005539
-0.108519 -0.031273 0.001139
-0.017232 -0.015263 -0.130057
0.073046 0.084554 0.000851
0.132724 -0.041320 0.057475
-0.045677 0.047591 0.000960
-0.041983 -0.113997 0.136954
-0.114656 0.080695 -0.069965
0.095723 0.098924 0.103015
-0.084008 0.053577 0.136888
0.134708 0.012429 -0.029143
-0.132244 0.044398 0.032775
-0.012757 0.018889 -0.130056
0.006443 0.074113 0.137050
-0.084602 -0.115168 0.121406
0.066302 0.119757 0.088583
-0.027853 0.135993 0.115867
0.060010 -0.060055 -0.130031
-0.088440 -0.105324 0.000699
0.083998 0.107278 -0.062928
-0.095751 -0.105743 -0.092875
0.077226 0.113859 -0.121086
0.012036 -0.035558 0.136931
0.134228 0.010284 -0.012949
-0.077747 -0.109746 0.136775
0.031302 0.100339 -0.130057
-0.095149 0.085773 -0.129988
0.044566 -0.135575 0.092093
0.012074 0.135692 0.063753
0.131178 -0.047475 -0.060768
-0.111326 -0.087895 -0.081355
-0.012384 0.060007 -0.129970
-0.096315 -0.103437 -0.030752
-0.124327 0.067062 0.080529
0.090464 0.028818 -0.130057
0.135775 -0.028873 -0.043709
-0.054396 0.004197 -0.130057
-0.063501 0.040051 0.000975
0.079305 -0.007785 -0.130053
0.007627 0.134444 -0.025839
-0.036979 0.004883 -0.130057
0.018880 0.136641 -0.117293
-0.079957 0.116454 -0.118508
-0.069350 0.121260 -0.099151
0.084126 0.047495 0.137009
0.079266 -0.116663 0.041594
-0.098313 -0.104773 0.112106
0.048692 0.127436 -0.076031
0.100964 0.090063 -0.025503
-0.125167 0.064114 -0.058598
-0.124182 0.003084 0.136885
0.025536 0.135176 0.095587
0.058997 0.115901 0.000869
0.036149 -0.044571 0.001035
0.054830 0.049708 0.137050
-0.059855 -0.101406 0.000921
0.052639 0.106265 -0.130057
-0.101501 0.097824 0.112624
0.005265 -0.140471 -0.083653
-0.025681 -0.139479 0.063817
0.116824 0.028571 0.136921
-0.045160 0.071391 -0.129954
-0.015860 -0.041398 0.001113
0.026887 -0.060495 0.137018
-0.012189 0.135429 -0.075833
-0.115430 -0.043923 0.005665
-0.070029 0.120012 0.069403
-0.068620 0.119568 0.031899
0.070714 0.101889 0.137050
-0.107236 -0.092222 0.069514
0.021110 0.134777 0.047307
-0.033534 -0.139024 -0.105473
0.106116 0.087903 -0.117898
-0.138613 0.022244 -0.032807
0.109227 -0.060324 0.005708
-0.007736 -0.117324 0.136974
-0.025030 -0.139898 -0.078733
0.080749 -0.035806 0.136899
-0.121665 -0.062279 0.005897
0.128109 -0.057854 0.094178
-0.052531 -0.132269 0.094315
0.105276 -0.090424 -0.006848
0.051399 -0.049816 0.005582
-0.131252 0.048755 -0.045165
0.025163 -0.128006 -0.130017
-0.018463 -0.087636 -0.130057
0.036100 -0.099002 0.136873
-0.002246 -0.139985 -0.061384
-0.095625 -0.055717 0.136910
0.003606 -0.140361 0.085305
0.061696 -0.082496 0.136841
0.030702 0.052308 0.000922
0.095825 0.096491 -0.037642
-0.138501 0.001244 0.050763
0.113383 0.075693 0.065982
-0.133881 0.021172 -0.130000
0.038170 -0.038917 0.137047
0.100105 -0.008754 0.001066
-0.098804 0.086850 0.136803
0.047231 -0.118261 0.001317
0.025320 -0.011967 -0.130057
-0.058657 0.032775 -0.130018
-0.137726 -0.014348 -0.035598
0.040097 0.131651 0.112554
0.033948 0.067084 0.137050
-0.010206 -0.017622 0.136903
0.065637 -0.031067 -0.130050
0.082731 0.106122 -0.002008
-0.107252 -0.094495 0.126210
0.044322 -0.133617 -0.012340
0.099871 0.083618 0.000797
0.118467 0.068145 0.042509
0.130038 0.039095 0.009888
0.069644 -0.074995 -0.129992
0.005862 0.034812 0.005820
0.134823 -0.020075 0.008921
0.060606 -0.001667 -0.130057
0.054038 0.031263 0.005769
-0.032390 0.067737 0.137031
-0.140491 -0.008100 0.116971
0.058784 -0.127922 0.048844
-0.136098 -0.035292 0.037072
0.090384 -0.110460 0.129996
-0.022503 0.134140 -0.048597
0.033756 0.129889 -0.003218
0.048092 -0.133584 -0.060825
-0.005104 0.043035 -0.130026
-0.046843 0.083415 0.001075
-0.040653 -0.071228 -0.130057
0.007964 -0.064543 0.001166
-0.088992 0.108153 -0.092792
-0.078493 -0.118881 -0.092951
-0.037284 -0.123853 -0.130057
-0.077977 -0.081409 0.136742
-0.084192 -0.114199 0.080812
-0.138817 0.019216 0.043351
-0.083862 -0.112284 0.019793
0.108313 -0.041810 0.136726
0.115927 -0.079128 0.067180
0.013836 -0.137333 0.006867
-0.112938 -0.082277 0.016883
-0.015159 0.137066 -0.127024
-0.096976 -0.023549 0.005697
-0.077267 0.115659 0.053344
0.129302 0.004530 0.001083
-0.012272 -0.139181 -0.027173
-0.013475 0.032310 0.005827
-0.103195 0.093099 0.055754
-0.058405 0.126309 0.099331
-0.070174 0.059035 0.136917
0.138054 -0.012755 -0.104453
0.135283 -0.017734 -0.017892
0.135032 0.031726 -0.125754
0.111055 -0.016006 -0.130039
0.106460 -0.087212 0.006029
0.058800 0.001096 0.005676
-0.138038 0.029263 -0.063844
-0.031159 0.036981 0.137050
-0.086244 -0.017720 0.137050
-0.059498 -0.113881 0.005916
0.007610 0.028745 0.137050
-0.113704 0.082705 0.119254
-0.020928 -0.066147 0.136885
-0.073668 -0.061952 -0.130057
0.019056 0.037434 0.137050
0.054382 -0.012344 0.137039
-0.067940 -0.025344 0.005680
-0.137565 0.011305 0.013741
0.012331 -0.119138 -0.130043
-0.047445 -0.034420 0.005654
0.038049 0.128993 -0.016109
0.057356 -0.038073 0.005602
0.068088 -0.096969 0.005500
-0.034555 0.101412 0.136901
0.075978 -0.118391 0.019556
0.011149 0.136882 0.098859
-0.042815 -0.085713 0.005582
0.094406 0.098822 0.059746
-0.010866 -0.104174 -0.130057
0.044178 -0.133455 0.011639
0.132341 0.043042 0.128709
-0.093188 0.102626 0.035235
0.126507 -0.060193 0.070622
0.136051 -0.026968 0.048040
0.006523 0.124275 0.001102
-0.020401 -0.138946 0.018329
0.032012 0.036473 0.137050
-0.127136 0.032328 0.001062
-0.071589 -0.122839 0.080401
0.051876 -0.020595 -0.130057
-0.112591 0.040913 0.136828
-0.033906 -0.014912 0.001038
