0.041227 0.074026 0.042140
0.024812 0.079606 -0.027139
-0.016241 -0.081229 -0.063528
-0.083009 -0.017372 0.082195
0.058112 -0.058575 0.063667
-0.038945 -0.010871 -0.078196
0.080587 -0.014637 -0.049500
-0.030102 -0.011618 0.000622
-0.058222 0.062086 0.035483
-0.068633 0.050499 -0.039573
0.013415 0.009380 0.082401
-0.023665 -0.078605 0.045150
0.082958 -0.004407 0.050547
-0.082362 -0.023280 -0.048136
0.051740 -0.062351 -0.011087
-0.020587 -0.045139 -0.078189
0.051051 0.019561 0.000635
0.013012 0.051305 -0.078193
0.058797 -0.058398 -0.067877
-0.073902 -0.039991 0.028306
-0.014737 0.068343 0.082331
0.063203 0.055667 -0.035936
-0.027463 0.081202 -0.066588
0.069739 0.046545 0.039737
-0.075550 0.038557 -0.017612
0.059545 0.014427 -0.078189
-0.012261 -0.049433 0.082359
-0.009883 -0.053875 0.000650
-0.017869 0.053072 0.003386
-0.039449 -0.073152 -0.008607
0.056102 0.039039 0.082251
-0.081220 0.020939 0.035216
0.016895 -0.010507 -0.078192
-0.043601 0.019740 0.082353
-0.011888 0.084451 0.064619
-0.036532 0.076826 -0.037924
0.016521 -0.080354 0.029753
0.058569 0.062304 -0.067031
-0.058110 -0.062190 0.069508
0.062689 -0.024011 0.003475
0.050826 -0.018593 0.082401
0.015125 -0.080630 -0.029336
0.036435 0.047152 0.082312
-0.041232 0.046711 -0.078196
0.018840 0.080780 0.022622
-0.060975 -0.059454 -0.056735
-0.053107 0.029484 0.000739
-0.060750 -0.013221 -0.078173
-0.046610 -0.063425 0.003470
-0.079380 0.025876 -0.078191
0.011803 0.002834 0.003471
-0.013300 0.038831 0.082313
0.021467 -0.080711 0.082375
-0.079663 -0.029627 0.040649
-0.084365 -0.005120 -0.001940
-0.019803 0.024984 -0.078196
0.027103 0.050665 0.000639
0.053495 0.064666 -0.017140
-0.061310 0.060549 0.081983
0.015905 0.083062 -0.063186
-0.029342 0.003664 0.082344
0.081002 0.018086 -0.022199
0.022151 -0.079875 -0.068044
0.057069 -0.058294 0.022290
0.024355 -0.024585 -0.078180
0.076697 -0.028387 -0.033287
-0.024800 0.080832 0.017904
-0.067764 0.050939 0.025302
0.024432 -0.033915 0.003523
-0.082543 0.021305 0.082286
0.032838 0.026504 -0.078162
0.001575 -0.081766 -0.007403
0.083372 -0.000044 0.082243
-0.054619 -0.034075 0.082251
-0.044272 0.072237 -0.010544
0.017856 -0.032413 0.082401
-0.072717 -0.042156 -0.023915
0.072260 -0.039899 0.082399
0.076535 -0.026618 0.020583
-0.037919 0.076827 0.064088
0.082695 0.012079 -0.050362
0.062883 -0.024739 -0.078196
0.000307 0.077365 0.082401
-0.083923 0.011703 -0.044478
-0.065252 -0.032256 0.000686
0.050680 0.066874 0.017877
-0.058470 -0.039292 -0.078114
-0.028003 -0.077455 -0.038742
0.067963 0.049904 0.062728
0.081797 0.010591 0.018402
-0.009003 0.083878 -0.012532
-0.020161 0.016182 0.003386
0.080959 -0.006969 -0.006811
-0.004598 0.084868 -0.037670
0.013659 0.083195 0.054576
0.047792 -0.067661 0.072189
-0.060740 -0.058482 0.037417
0.015597 -0.081275 0.063915
-0.001493 -0.064590 -0.078192
0.042687 0.048890 -0.078135
0.049491 -0.065510 -0.048080
-0.085440 0.000576 0.044483
-0.009111 0.064798 -0.078196
-0.014021 -0.079751 0.009811
-0.015943 -0.079844 0.082300
0.026763 -0.065772 0.000487
-0.054217 0.066943 -0.077839
0.074408 0.040394 -0.063787
0.055352 0.037528 0.000640
0.032220 0.079206 0.072731
-0.017276 -0.017015 0.082361
0.042796 -0.007451 0.000579
-0.080276 0.018177 0.003392
-0.074127 0.043595 0.060042
-0.004063 -0.023930 0.000643
-0.077100 -0.037034 -0.076195
-0.001901 0.011946 -0.078196
0.080990 0.023440 0.065826
-0.037524 -0.074923 0.049634
0.031345 -0.051069 -0.078196
0.033071 0.078554 -0.057347
-0.051161 0.050652 0.082279
0.031822 0.022835 0.082401
0.002663 0.030369 0.003433
-0.010617 -0.082131 0.052963
-0.026630 0.080914 0.043050
-0.036083 -0.043375 0.000621
-0.034007 -0.077265 0.080385
-0.048651 0.017388 -0.078196
0.083711 -0.003693 -0.076121
0.070882 -0.042134 0.044064
-0.065451 0.053423 -0.005134
0.069856 -0.040733 -0.007139
-0.006770 -0.019350 -0.078196
-0.056559 -0.001032 0.000744
-0.086101 -0.001511 -0.069859
-0.075992 0.039020 -0.043711
0.077430 0.029833 -0.003168
0.012781 -0.081614 -0.055580
0.007288 0.070178 0.000674
0.041193 -0.048099 0.082401
-0.044334 -0.072370 -0.076234
-0.036536 -0.066327 -0.078118
0.039257 -0.071552 0.015617
0.053218 0.066903 0.077578
0.036631 -0.072568 -0.012858
-0.076945 -0.037140 0.067187
-0.078241 -0.031114 -0.008920
-0.083058 -0.015034 0.022604
-0.049757 0.069899 -0.059256
-0.002152 -0.018555 0.082323
-0.035620 0.045272 0.000731
0.037531 0.075156 -0.005536
0.032443 -0.004747 0.082401
-0.078948 0.028237 0.020778
0.061502 0.010194 0.082309
-0.084197 0.007181 -0.020860
0.071408 -0.041521 -0.058313
-0.066356 -0.001120 0.082292
0.070849 0.044054 -0.015010
-0.058114 -0.060575 -0.023033
-0.005095 -0.081077 -0.078188
0.004604 0.017363 0.082391
0.009300 0.083771 -0.036785
-0.071739 -0.045224 -0.046293
0.006506 0.036569 -0.078196
0.013898 0.050125 0.082401
0.080424 0.023490 0.044988
-0.079143 -0.030174 -0.026510
0.009490 -0.060530 0.082390
0.081630 0.021780 -0.076891
0.026791 0.025442 0.000621
-0.036534 -0.074505 0.018527
0.046058 -0.008200 -0.078174
0.055248 -0.046797 0.003587
0.078154 -0.025782 0.060249
-0.004310 0.084789 0.034737
0.076611 0.032453 0.019327
0.051307 0.067837 0.063049
0.042073 -0.070901 0.048073
0.048993 0.006176 -0.078155
-0.058792 0.061729 -0.036005
-0.037402 -0.025518 -0.078189
0.026261 0.067467 -0.078176
-0.083419 0.009242 0.016968
-0.019738 -0.024563 -0.078196
-0.081573 0.022891 0.058401
0.065411 0.039228 -0.078161
0.082951 0.006591 -0.038711
-0.051001 0.068933 0.064010
0.075987 0.035024 -0.033400
-0.064875 -0.053096 0.016644
-0.004709 0.085728 -0.070273
0.041325 -0.036600 0.000545
-0.070003 0.049906 -0.075038
-0.074167 0.042295 0.039928
-0.045821 -0.070326 -0.041578
-0.064615 0.031601 0.082398
0.072111 0.010699 0.000638
0.040990 0.054407 0.003454
0.065917 0.050845 0.010160
0.076698 0.035662 0.073032
-0.025620 0.080652 -0.018504
-0.037420 -0.029463 0.082324
-0.083965 -0.015817 0.060252
-0.043698 0.072913 0.020528
-0.020751 0.014895 0.082264
0.050505 -0.042429 -0.078196
0.044038 0.072216 -0.037917
-0.023329 -0.033417 0.003384
-0.044824 -0.054535 0.082198
-0.070849 -0.046472 0.054443
-0.021110 -0.078399 -0.017074
0.054892 0.064071 0.035757
-0.032179 0.061764 -0.078196
0.012137 -0.047302 0.000606
0.008648 0.050821 0.000662
0.042490 -0.071162 -0.075561
-0.080742 0.027272 -0.061128
0.001305 -0.043191 -0.078196
0.023265 -0.015637 0.000583
-0.004930 0.083944 0.006755
-0.021897 0.000830 -0.078196
-0.022825 -0.066549 0.000644
-0.084197 -0.009904 -0.025003
-0.025645 0.058301 0.082263
0.068688 -0.044088 0.019002
-0.030641 -0.054790 0.082267
-0.037429 -0.075315 -0.061326
-0.081020 0.027061 0.070817
0.079473 -0.022159 -0.069498
0.058659 -0.057529 0.043753
-0.033389 0.067158 0.000519
-0.069474 0.005572 -0.078182
0.050125 0.068279 -0.050235
0.082899 0.001063 -0.026424
0.029839 -0.077049 0.071204
-0.053608 -0.059154 -0.078117
0.027807 0.071281 0.000649
-0.000872 -0.082532 0.034503
0.074360 -0.016208 0.082346
-0.023297 0.081866 -0.050857
0.078395 -0.021853 0.040718
0.021838 -0.052491 0.082401
-0.018101 0.074208 0.000585
-0.050293 -0.004606 0.082331
0.070605 -0.043050 0.057408
0.000168 -0.083674 0.079350
-0.005314 0.002419 0.000630
-0.002506 0.085362 -0.054452
0.042950 0.066335 -0.078138
-0.024308 0.081977 0.077941
-0.085803 0.005315 0.071578
-0.010395 -0.082054 -0.045871
0.061335 -0.001275 0.003433
-0.036561 0.009364 0.003354
-0.065214 0.013016 0.082320
0.078438 0.019637 0.082227
-0.041438 -0.024891 0.000624
0.018150 0.081500 0.038410
-0.019351 -0.080550 0.069595
-0.015810 0.044228 -0.078196
0.016964 -0.061837 -0.078194
-0.040211 -0.045526 -0.078143
0.020615 0.008122 -0.078186
0.009420 -0.063651 0.000600
0.082150 -0.004982 0.031335
0.069311 -0.045316 -0.077639
-0.067193 -0.052317 0.075406
-0.080252 -0.015660 -0.078121
0.037556 -0.072780 0.034663
-0.064812 -0.052018 0.000505
-0.047416 0.047481 0.003463
-0.037055 0.028076 0.000751
-0.034916 0.037036 0.082252
-0.058913 0.060567 0.010944
-0.016155 0.034590 0.003392
0.018050 0.070147 0.082316
0.081737 0.008801 -0.007433
-0.072793 0.042894 0.008994
0.013413 0.083953 0.073980
0.055342 -0.055772 0.082341
-0.044957 0.074204 0.081779
0.076958 -0.025413 -0.020239
0.035301 0.076403 0.013530
-0.043641 0.073566 0.037641
0.059657 0.058792 -0.004413
0.035276 -0.074116 -0.040471
-0.082506 -0.015895 0.009597
0.058948 -0.056793 -0.024905
-0.035775 -0.016900 0.082351
-0.009022 -0.000208 0.082302
0.082393 -0.008911 0.065624
0.048921 -0.064429 0.006799
0.008879 0.063450 0.082401
-0.080426 0.024356 -0.032085
0.028263 0.009631 0.003529
0.050144 0.031045 -0.078105
0.078182 0.031030 -0.049135
-0.062388 0.012884 0.000790
-0.057692 -0.017769 0.000701
-0.079293 0.010963 -0.078176
0.068844 -0.043669 -0.029577
0.020519 -0.079283 -0.014253
0.076701 -0.023941 -0.002603
-0.061761 0.026870 -0.078196
0.067313 0.051352 0.079850
-0.007109 -0.068112 0.003420
0.033546 0.040791 0.003430
0.049504 0.011278 0.003428
0.079630 -0.012441 0.010837
0.006219 -0.029627 0.003456
-0.063709 0.057452 -0.060450
-0.045864 -0.069887 0.034939
-0.011408 -0.056144 -0.078189
-0.000941 -0.081855 0.011624
0.036659 -0.072153 -0.000531
-0.008494 -0.081879 -0.027515
-0.072542 0.046598 0.077410
0.011010 0.082724 -0.018902
-0.085484 -0.006583 -0.052962
-0.065662 0.054818 0.048853
-0.000871 0.057797 0.003419
-0.005238 -0.065784 0.082341
-0.072697 -0.016681 0.003286
0.034082 -0.022339 0.082401
0.037824 -0.032422 -0.078189
-0.020598 -0.078693 0.025968
-0.009375 0.084562 0.045446
-0.053677 -0.065001 0.049732
0.010852 0.084822 -0.077822
0.030489 0.078981 0.053458
0.008193 -0.015880 0.000650
-0.042346 -0.071933 -0.025306
-0.047551 0.069461 0.006411
-0.083828 -0.012989 0.035587
-0.040284 -0.002890 0.003348
-0.074763 0.042731 -0.067723
0.060751 -0.056038 -0.056746
-0.059175 -0.017401 0.082282
0.031231 0.078567 -0.042754
0.060437 -0.055867 -0.039410
0.083676 0.006488 0.064903
0.010834 -0.035411 -0.078196
-0.001541 -0.083256 0.064656
-0.049814 -0.068146 -0.056331
0.013762 -0.015897 0.082401
0.030153 -0.076057 0.043641
-0.050000 -0.048613 0.003393
0.052259 -0.032583 0.000588
0.083667 0.008649 -0.066720
0.067088 0.052491 -0.076496
-0.082889 -0.015234 -0.014138
-0.051545 -0.067530 0.080893
0.052534 0.022647 0.082317
0.067631 -0.005011 -0.078196
0.053229 -0.002018 0.082372
-0.014432 -0.033000 0.082399
-0.076139 -0.035426 0.012484
0.041392 0.030874 0.000612
-0.067030 0.028403 0.003428
-0.040731 0.075437 -0.076095
-0.002901 0.053908 0.082383
-0.038238 0.076295 -0.055204
-0.001204 -0.082655 -0.038235
-0.076290 -0.037590 -0.053246
-0.084180 0.011961 0.057730
-0.059954 0.039279 -0.078196
0.029031 -0.064308 0.082401
-0.022956 0.001209 0.000633
0.011020 -0.082400 -0.077196
-0.008821 -0.040173 0.003414
0.003363 -0.003268 -0.078196
-0.067034 -0.052604 -0.075843
-0.070309 -0.022141 -0.078130
-0.067044 -0.050349 -0.012853
0.016502 0.018334 0.003485
-0.052560 0.001925 -0.078196
0.060715 0.058088 0.023611
0.022320 0.039160 -0.078182
-0.056193 0.063245 -0.012593
-0.075525 0.004390 0.000800
-0.023139 -0.080029 -0.077925
0.056613 -0.017702 0.000618
0.017785 0.082144 -0.050198
0.063349 0.056085 -0.050683
0.073287 0.000656 0.082365
0.048825 -0.034329 0.082401
-0.075489 -0.032104 0.082160
0.063228 0.028898 0.003461
-0.034013 0.016698 -0.078196
0.006250 0.036404 0.082401
-0.020690 -0.048465 0.003391
0.004460 0.083839 -0.004521
-0.013156 0.083536 -0.027434
0.013387 0.023472 -0.078194
-0.010922 -0.011320 0.003407
0.014799 -0.074348 0.000550
0.010394 -0.042377 0.082370
0.000550 0.014093 0.000631
-0.062360 0.019886 -0.078196
-0.018247 0.082665 0.029779
0.035075 -0.074831 -0.061920
-0.035736 0.076112 -0.006224
0.049328 -0.058035 -0.078196
-0.032600 -0.057576 0.003382
0.080462 0.021000 0.027764
0.036293 0.077355 -0.072296
0.004027 0.084843 0.043232
0.040040 -0.055847 0.000522
-0.003518 0.024999 -0.078196
0.076983 -0.029303 -0.047715
0.074225 -0.033854 0.008280
-0.048193 0.070566 -0.045383
0.044759 -0.068463 -0.024297
-0.009627 0.085092 0.077468
0.025571 -0.052505 0.003530
-0.048977 -0.067223 0.017529
0.030313 -0.001782 0.000559
-0.084658 -0.001470 0.012571
0.026093 -0.076832 0.012018
0.015077 0.058267 0.003449
-0.034751 -0.075436 0.032632
0.009402 0.082718 0.011431
0.073590 -0.036320 0.029272
0.075508 0.036861 0.049222
-0.030331 0.078977 0.030206
0.028042 0.056489 0.082317
0.058001 -0.056890 0.007055
0.070852 0.045539 -0.043238
0.012725 -0.081301 0.043740
0.074726 -0.000428 0.003450
-0.028516 0.080518 0.054412
-0.024954 -0.058196 -0.078150
0.044833 0.059935 0.082253
-0.015148 0.083626 -0.060543
-0.049155 0.036421 0.082320
-0.085020 0.004305 0.030235
-0.054075 -0.033222 0.003324
-0.079159 0.026766 -0.012466
-0.037571 -0.075284 0.067069
-0.003507 -0.033155 -0.078196
0.069241 0.046407 0.025533
0.050375 0.066659 -0.000832
0.028282 -0.026789 0.000535
0.022339 0.079480 0.010086
0.045451 0.019885 -0.078119
0.041116 -0.019376 0.000561
0.029565 -0.004234 -0.078168
-0.000409 0.075914 -0.078196
-0.000334 0.085427 0.058692
-0.058718 0.052211 -0.078196
-0.054917 -0.064807 -0.068170
-0.055408 0.064053 0.022225
-0.081922 -0.026538 -0.070057
-0.049207 0.014047 0.000760
0.012714 0.032478 0.003469
-0.085451 -0.000846 -0.038348
0.004491 -0.005273 0.003446
-0.038275 0.032989 -0.078196
0.071294 0.042609 -0.001614
-0.060124 0.061079 0.056843
0.020642 0.079847 -0.004504
-0.014496 -0.079567 -0.003801
-0.079879 -0.030079 0.055498
-0.016449 0.083113 -0.038644
0.064959 -0.049576 0.029802
0.006670 -0.029318 0.082361
0.036852 0.075929 -0.019420
0.029615 -0.073818 -0.078196
0.080874 0.020608 -0.035502
0.054256 0.064516 -0.030049
0.063980 0.026056 0.082248
0.082875 0.008371 0.045452
-0.020737 0.057244 -0.078196
-0.084014 0.014139 -0.064016
-0.008449 0.068919 0.003403
-0.079296 -0.004376 0.082247
-0.079524 0.029709 0.046788
-0.065894 0.053330 -0.017737
0.054871 0.051027 0.003472
-0.080728 0.025063 -0.045552
0.022766 -0.079133 -0.038803
0.004524 -0.000413 0.082375
-0.014467 -0.080622 0.037697
0.005252 0.084241 0.025270
0.025175 0.011080 0.082401
0.075158 -0.035072 0.070125
-0.037865 0.050518 0.082218
0.028956 -0.076490 -0.024202
0.079733 0.021057 0.003555
0.043808 -0.020396 -0.078191
0.010050 -0.073783 0.082375
-0.054068 -0.063490 -0.010670
-0.064648 -0.054603 -0.043707
-0.085765 0.002920 -0.061166
0.069977 0.046258 -0.029412
-0.011275 0.016974 0.082305
-0.043833 0.060379 0.000504
0.041006 0.074656 0.055200
0.062690 0.055514 -0.016470
-0.083500 0.008187 -0.007840
0.068838 -0.009565 0.003436
-0.073233 -0.041877 0.042447
0.083299 -0.002279 -0.052726
-0.049438 0.068769 -0.022199
0.059026 -0.042331 0.082401
0.070989 -0.016289 -0.078196
0.080972 0.023114 -0.058491
0.046249 0.008271 0.082375
0.071117 0.027642 -0.078196
-0.055505 -0.062746 0.026395
-0.067394 -0.004756 0.003295
0.041984 -0.071285 0.060625
-0.051142 -0.029611 -0.078162
-0.009723 0.019511 0.000638
-0.085903 -0.003375 0.061717
-0.009423 0.043898 0.003404
-0.055082 0.022093 0.082390
0.029295 0.035311 0.082379
-0.032893 0.023342 0.082291
-0.056288 -0.046675 0.082171
-0.005009 0.038454 -0.078196
0.031937 -0.043809 0.003552
-0.056143 -0.062937 -0.041585
-0.000293 0.085678 0.070298
0.021811 -0.043567 -0.078185
0.001782 0.049100 -0.078196
0.010601 -0.050994 -0.078196
0.064061 -0.009493 0.082354
0.021857 0.081978 -0.074248
-0.030238 -0.076444 -0.025519
-0.036474 -0.034771 0.000617
0.001850 -0.052516 0.003445
0.061213 0.059395 0.073843
-0.023064 -0.042041 0.082342
-0.080980 -0.025066 0.017322
0.061403 0.058561 0.056561
-0.033763 -0.076426 -0.049959
0.063773 -0.050576 -0.015743
-0.028756 0.056909 0.003422
0.029280 0.071784 0.082279
-0.060947 0.047343 0.003540
-0.026548 -0.010362 -0.078196
-0.077868 0.030315 0.004221
0.003914 -0.083103 -0.063908
0.051227 -0.064356 0.055125
-0.021913 -0.022448 0.003386
-0.027522 -0.076463 0.010965
0.030409 -0.075378 0.023100
0.081993 0.016047 0.053846
-0.063342 0.057496 -0.047713
-0.078446 -0.032298 -0.038577
-0.082554 -0.020443 -0.036374
-0.073498 0.044285 -0.055726
-0.084761 -0.003409 -0.014754
0.037734 0.010800 -0.078143
-0.055936 -0.059699 0.003480
0.021329 0.043417 0.082400
-0.066848 0.052702 0.037650
-0.015468 0.083733 -0.075539
-0.079936 0.010377 0.082275
-0.046999 0.062368 0.082219
-0.083138 -0.022165 0.071086
-0.022376 -0.079348 0.057168
-0.063321 -0.056217 0.060582
0.080956 -0.008843 -0.019775
0.051434 -0.063612 0.037272
-0.027781 0.047486 -0.078196
0.072505 -0.038848 -0.042235
-0.006644 -0.082818 -0.057092
-0.038493 0.000916 -0.078196
-0.077429 0.035296 -0.029736
0.049176 0.068971 0.049823
0.082492 -0.005248 -0.038863
0.038795 0.005529 0.003504
0.071480 -0.038980 -0.018982
0.062709 0.056237 0.039726
-0.054357 0.008329 0.082358
-0.024798 0.040115 0.000730
0.022678 0.038303 0.000641
-0.084121 0.009229 -0.032935
-0.027048 0.022497 0.000707
-0.038307 -0.063734 0.082216
-0.046996 -0.016309 0.000668
0.026744 -0.076757 -0.003198
0.001388 -0.040774 0.003441
0.081461 -0.012690 -0.061057
-0.040663 0.018501 0.000743
-0.025978 -0.007563 0.082367
-0.082718 0.016467 0.047112
0.056039 0.054899 -0.078090
0.079597 0.027947 0.055483
0.079446 -0.015709 0.028296
0.020760 0.028147 0.082401
0.064536 -0.050890 0.069417
-0.079023 0.034255 0.079217
-0.025552 -0.065124 0.082251
-0.026278 -0.024175 0.082374
0.036147 -0.074681 0.080520
0.032701 -0.040415 0.082401
0.015563 0.071236 -0.078189
0.082635 -0.010236 0.081469
-0.029902 0.000667 0.003368
-0.049260 0.037266 -0.078196
-0.030447 0.073137 -0.078193
0.062130 0.020682 0.003450
0.077417 -0.029474 -0.061243
0.054572 -0.017100 -0.078196
0.045886 0.039965 0.003445
-0.081217 0.019460 -0.020733
-0.049629 -0.068257 0.059678
-0.012605 -0.033267 0.003405
0.062667 -0.038443 0.003533
0.072667 0.040457 0.082319
0.018387 -0.074046 -0.078191
-0.055115 0.061391 0.000465
0.062302 -0.054646 -0.077788
-0.058946 0.062616 0.068625
-0.082842 -0.020520 0.050592
-0.066077 -0.052013 -0.023829
-0.050194 0.068655 -0.034574
-0.009475 -0.081250 -0.016529
0.062904 -0.052548 0.052621
-0.064257 0.049962 0.082342
-0.077851 0.036607 -0.076381
-0.066941 0.051531 0.012325
0.054515 0.063328 0.008236
0.078139 0.011468 -0.078185
0.049544 -0.065901 -0.069044
0.036315 0.076447 -0.031406
-0.033314 -0.077279 -0.071259
0.023438 0.018676 -0.078182
-0.011228 -0.001417 -0.078196
-0.056288 0.064156 0.047135
0.004147 -0.074887 0.000616
0.064715 -0.035437 -0.078196
0.079020 -0.017990 -0.027833
-0.013263 0.057636 0.082330
-0.031655 0.075404 0.082245
-0.026193 0.081444 0.067381
-0.067747 -0.050357 0.037087
-0.050302 -0.023441 0.082297
0.048421 -0.066000 -0.034043
0.037177 -0.043281 -0.078196
-0.057352 0.064044 -0.065898
-0.010327 -0.081276 0.027142
-0.043062 -0.057646 -0.078183
0.080661 -0.014813 0.056957
0.029942 0.060851 0.000638
0.025089 -0.078703 0.060056
-0.076411 -0.007211 0.003278
0.008024 0.084693 -0.054143
0.034988 0.007254 0.082401
-0.047541 -0.070160 0.071888
0.037737 0.069479 0.003462
-0.077373 -0.026971 0.000662
-0.082250 -0.016967 -0.003842
-0.009059 -0.041827 -0.078196
0.074091 -0.037384 -0.072800
0.042094 0.074327 -0.060480
0.017233 -0.027648 0.000603
0.082644 0.000226 0.019127
0.029388 -0.061236 -0.078196
-0.043127 0.074058 -0.066165
-0.017448 0.005858 0.082281
-0.049425 -0.006976 0.000702
-0.078577 0.034438 0.064000
-0.068808 -0.048856 -0.036197
0.065567 -0.050026 -0.069152
-0.042318 0.059767 -0.078196
-0.011394 -0.082307 0.063255
-0.021588 0.067902 -0.078196
-0.040388 -0.049675 0.000620
0.077164 -0.027082 -0.078196
0.053911 -0.032768 -0.078196
-0.000043 0.084440 -0.017363
0.011175 0.011875 -0.078196
-0.033841 -0.035024 -0.078183
-0.016130 0.082602 -0.005423
-0.085041 -0.010897 0.069039
0.045197 -0.067674 -0.005498
-0.065739 0.055675 0.074129
0.052169 -0.004487 0.000615
0.042292 0.072481 0.019649
0.072334 0.010663 0.082345
0.044929 0.070235 0.082226
-0.057831 0.019419 0.000781
0.068931 -0.043352 0.008981
0.008640 -0.081849 -0.040055
0.049488 -0.066284 0.081987
0.052547 0.067099 -0.073454
0.007788 0.041236 0.003449
-0.051027 -0.015624 -0.078183
-0.066937 0.037766 0.003495
0.080466 0.018652 -0.006310
0.083511 -0.001878 -0.062691
0.063354 -0.051124 0.014412
-0.059975 -0.055904 0.082147
0.005390 -0.082160 -0.030551
0.009749 -0.082008 0.053177
-0.076791 -0.006368 -0.078155
0.016567 0.060545 -0.078188
0.075114 -0.034644 0.060234
-0.047109 0.027605 -0.078196
0.030927 0.019187 0.000586
0.022735 0.079667 -0.014169
-0.075547 -0.039644 -0.062891
-0.078093 0.033077 0.029358
-0.054143 -0.048181 -0.078168
0.058419 -0.001434 -0.078196
-0.078036 0.035245 -0.055971
-0.067388 -0.011930 0.082268
-0.017737 -0.080017 -0.039599
-0.081578 -0.026768 -0.060210
-0.010205 0.074871 -0.078196
0.074174 -0.026055 0.082356
0.061343 -0.018905 0.082385
0.017607 -0.063768 0.003504
0.012781 0.076962 0.000664
-0.012035 0.083577 0.022213
-0.073146 0.043102 0.022865
-0.069454 -0.046122 0.006812
0.000389 -0.052942 -0.078196
-0.057715 0.041154 0.082343
0.007910 -0.067275 -0.078196
0.071961 0.041393 0.017594
0.076142 -0.030769 0.037409
-0.083368 0.018108 -0.072915
0.019903 -0.071074 0.082396
-0.053827 0.067097 0.077130
0.071393 -0.035116 0.000653
0.009893 0.075429 0.082344
0.057002 -0.059363 -0.047883
0.014752 -0.025977 -0.078195
-0.032409 -0.039481 0.082318
0.073289 0.042106 0.060626
0.023421 0.048768 -0.078180
-0.038987 0.075850 0.045801
-0.018036 0.061385 0.000709
-0.025470 -0.079001 -0.065097
0.032675 -0.075285 0.052894
0.014100 -0.038341 0.003486
-0.043239 0.009269 -0.078196
-0.063152 0.058372 -0.072311
0.057165 0.062989 -0.054067
0.062953 0.010118 0.003443
-0.042608 -0.073218 0.081605
-0.005412 -0.083107 -0.068829
0.002035 -0.063293 0.003448
0.047356 0.069621 -0.025790
-0.074298 -0.041934 0.075036
0.065146 0.006690 -0.078196
-0.042250 0.075143 0.072430
0.017988 -0.079804 0.016097
0.080688 0.025890 -0.067596
0.037280 0.056727 -0.078152
-0.057063 -0.042232 0.003381
-0.000350 -0.012028 -0.078196
0.058706 0.023892 -0.078163
-0.010925 -0.065696 -0.078165
-0.073752 -0.039480 -0.008988
0.057662 0.044713 -0.078109
-0.030574 -0.076031 -0.016072
-0.084006 0.014586 0.070821
-0.085145 -0.010896 -0.069022
0.038671 0.075691 -0.047858
0.025194 -0.010812 0.082401
-0.032123 0.078985 -0.048523
-0.032313 0.077605 0.013172
-0.005349 -0.046071 0.003421
0.064402 -0.049039 -0.006454
-0.068610 0.051243 0.059877
-0.006755 0.030861 0.003410
-0.013690 0.083021 0.010064
-0.082068 0.020709 -0.053783
0.031210 -0.053284 0.082401
-0.051647 -0.065899 -0.027264
0.059535 0.047751 0.082204
0.066279 0.036874 0.000621
0.009832 0.023989 0.000635
0.004897 -0.083212 0.070824
0.070456 0.024014 0.000628
-0.038677 -0.014002 0.003352
0.018966 0.009324 0.003495
-0.026285 -0.042237 0.003380
0.038350 -0.065849 0.082401
-0.070572 0.014794 -0.078191
-0.001480 0.077916 0.000680
0.063182 -0.050930 0.082263
0.027438 0.079431 0.044777
0.033515 0.078360 0.062133
-0.083892 -0.015820 -0.053306
0.078016 0.032983 -0.075269
0.044966 -0.049750 -0.078196
0.038342 -0.046829 0.000525
-0.085535 0.002256 0.082242
-0.070674 -0.047571 -0.069187
0.076372 0.034340 0.040522
-0.042259 0.073259 -0.000565
0.016927 0.059215 0.082364
-0.029601 0.075670 0.000467
-0.084541 -0.009887 -0.038403
0.003453 0.047425 0.082401
-0.010586 0.009807 0.000622
0.066174 -0.048800 -0.056015
0.019883 -0.034703 -0.078189
0.040994 -0.071844 -0.055730
-0.044528 -0.037558 -0.078157
-0.004031 -0.081712 -0.000287
0.043835 0.037516 -0.078128
-0.017489 -0.079577 -0.025268
0.076069 -0.008833 -0.078196
-0.044634 -0.069707 0.009628
0.032611 -0.019519 0.003550
0.074124 -0.035113 -0.026681
-0.081497 -0.023554 -0.020894
0.033576 0.077135 0.022319
-0.069345 0.038790 -0.078196
-0.044448 -0.040476 0.000612
-0.084521 -0.006669 0.019755
-0.073831 -0.035196 0.000622
0.020506 -0.040967 0.082401
0.040658 -0.071138 0.024441
0.081137 -0.010198 0.038525
0.012357 -0.080853 -0.020838
0.079168 -0.015388 -0.013963
0.080064 -0.020284 0.076812
-0.013386 -0.030834 -0.078196
0.001391 -0.022963 -0.078196
0.040692 0.021883 0.082356
-0.071359 0.018129 0.003373
-0.072907 0.045022 0.051335
-0.085977 0.005366 -0.076378
0.025208 0.079700 0.082273
-0.023734 0.080978 0.009115
-0.021838 0.081943 -0.031730
-0.013445 0.000345 0.003400
-0.085089 -0.007532 0.047970
-0.030126 -0.024147 0.000618
-0.042928 -0.009480 0.082342
0.081008 0.012353 0.003504
-0.001985 -0.010519 0.000639
0.049766 -0.043058 0.082401
-0.017393 0.083083 0.048703
0.005141 0.084579 0.034021
0.070864 -0.027057 0.003426
-0.045048 -0.071056 0.051763
-0.010803 -0.072497 0.082302
-0.065110 -0.005677 -0.078176
-0.041047 -0.038392 0.082291
0.083729 0.000332 0.073560
0.059847 -0.056666 0.073901
0.080120 -0.018264 0.064908
0.014969 -0.081666 0.076695
-0.072750 0.043971 -0.023796
-0.028909 -0.076511 0.022131
0.021571 0.080940 -0.042493
-0.069712 -0.049084 0.067778
-0.040087 -0.073530 0.041501
-0.017197 -0.056502 0.082325
0.045834 0.069895 -0.007387
0.028637 0.080130 -0.069284
-0.063847 -0.056389 -0.064242
-0.029276 -0.071491 0.003451
-0.002824 0.049890 0.000698
-0.022940 -0.077657 -0.008723
-0.041987 0.073594 0.012168
-0.062476 -0.040770 0.082175
-0.068411 0.039263 0.082389
0.082119 0.002572 -0.001608
0.077405 -0.024627 0.031624
0.063134 -0.012981 -0.078196
-0.036784 -0.074954 -0.030986
0.001615 -0.083133 0.056773
0.071308 0.030347 0.082315
0.076253 -0.026926 -0.010536
-0.050376 0.068585 0.038963
0.008905 -0.081014 -0.002801
0.056320 -0.059340 -0.032876
-0.010331 0.055828 0.000703
-0.067063 -0.050692 0.024449
-0.059268 0.012019 -0.078196
0.035833 -0.062512 0.003569
0.083121 0.001966 0.039948
-0.060953 0.002882 -0.078190
-0.070233 -0.045304 0.015180
-0.019259 -0.006231 0.000621
0.013600 0.083604 0.065552
-0.037653 0.075603 -0.014547
0.020798 -0.079911 0.041731
-0.025504 0.010257 0.000667
-0.042384 -0.071565 -0.016344
-0.058355 -0.009252 0.000727
0.077492 -0.014769 0.003443
-0.076993 -0.034451 0.020796
0.009642 0.084796 -0.068523
-0.074209 0.020178 0.082307
0.081932 -0.006328 -0.030310
0.070377 -0.043539 -0.066393
0.027892 -0.033538 0.082401
-0.033134 0.078108 0.038553
-0.072922 0.045716 0.069089
-0.003900 -0.049385 0.082390
0.060085 0.059806 -0.042494
-0.033252 0.041169 -0.078196
0.031510 0.032219 0.000601
-0.015186 0.024346 0.082290
0.040464 0.022581 0.000600
-0.005357 -0.082076 0.020499
0.058829 -0.042664 -0.078196
0.021436 0.062821 0.000651
0.045924 0.046910 0.000644
-0.010538 0.078452 0.082363
0.075559 0.037220 -0.053989
-0.055168 -0.064100 -0.051493
0.059875 -0.055043 -0.000782
0.039497 -0.000439 0.082401
-0.054092 0.042616 0.003463
0.013129 -0.009265 0.000652
-0.037264 0.076890 0.055866
-0.068247 -0.023116 0.000722
0.080746 0.023250 -0.049931
0.048328 -0.066303 0.045385
0.042892 -0.070285 -0.047020
0.000100 0.030966 0.082379
0.055972 -0.025104 0.082401
-0.080629 -0.025720 0.082177
0.083215 0.008030 0.055020
0.067124 -0.045825 -0.021866
-0.078282 -0.023974 -0.078098
-0.015439 0.005851 -0.078196
-0.075159 -0.014483 0.082235
0.084033 0.007748 0.079880
0.077800 -0.025433 0.048035
0.043553 -0.022303 0.082401
0.079565 0.026373 0.037397
0.067499 -0.046470 0.038043
-0.018490 0.044542 0.003386
0.073333 0.042965 -0.071445
-0.010763 0.084436 -0.053726
-0.011268 0.033249 -0.078196
-0.005650 -0.032552 0.000645
0.052298 -0.062596 0.027276
0.076667 0.034822 0.058672
-0.004996 0.003793 -0.078196
0.049099 -0.052093 0.003615
0.020856 -0.078974 -0.005906
-0.078729 0.032499 -0.039762
0.053817 -0.025200 0.003531
-0.042746 -0.001383 0.082382
-0.021835 -0.074298 0.082285
-0.063244 0.002693 0.003302
0.070386 0.019977 0.082316
-0.036966 0.076148 0.026622
0.005780 -0.048975 0.082366
0.014543 0.036948 -0.078192
0.049971 0.068626 -0.058265
0.046733 0.059646 0.000634
-0.018307 -0.037188 -0.078196
-0.009928 0.084388 -0.043664
-0.059995 -0.058488 0.013233
0.019590 0.004251 0.082401
0.057562 0.062905 0.064016
-0.059275 -0.009379 0.082298
0.023516 0.015410 0.000627
-0.083599 -0.019469 -0.066656
0.064341 0.052865 -0.001726
0.058646 0.062649 0.081650
0.070432 -0.042529 -0.050450
-0.057393 0.063753 -0.057918
-0.016485 0.083137 0.037544
0.037483 -0.003311 -0.078141
-0.078185 0.034050 0.040241
-0.003789 0.054792 -0.078196
0.065647 0.051548 0.018080
0.019221 0.024864 0.000643
0.076486 0.033406 -0.025634
0.064115 -0.049778 0.006622
-0.009285 -0.057108 0.082352
-0.013746 -0.071436 0.000653
0.003892 -0.083327 -0.073889
0.034117 0.077609 0.040957
0.080658 -0.018231 -0.076255
0.062487 0.056217 0.031825
-0.051910 0.067030 0.028653
-0.025665 -0.078817 0.065209
-0.041607 -0.047341 0.082256
-0.027969 -0.040277 -0.078185
-0.000109 0.011069 0.082360
0.057155 0.005613 0.000643
0.053688 -0.061906 -0.041231
0.015104 0.044083 0.003475
-0.061069 0.058932 0.020426
-0.069779 0.009111 0.003289
0.027732 -0.075949 0.004401
-0.085137 0.002578 -0.028909
-0.041717 0.053442 0.003476
0.021615 -0.079166 -0.024001
-0.072702 -0.030863 -0.078095
