-0.031318 -0.026545 0.156490
0.081820 0.108263 0.156374
0.026929 -0.098165 -0.148589
0.002814 -0.059282 0.006566
-0.031739 0.159275 -0.096667
-0.151495 -0.059653 -0.137903
0.157727 0.012270 -0.064006
-0.117784 0.113077 0.135225
0.129899 -0.088456 0.108002
-0.146295 -0.064795 0.071133
0.008411 -0.156962 -0.105711
-0.033305 -0.153883 0.089917
-0.031633 0.081664 0.001381
0.073889 0.089210 -0.148549
-0.071187 0.040239 -0.148608
0.018140 0.119074 0.156598
-0.151171 0.049160 -0.037667
0.090060 0.132487 0.034089
0.091708 -0.124400 -0.027392
-0.067823 -0.038952 -0.148606
0.114741 -0.106539 -0.118461
0.001454 -0.028550 0.156507
0.156510 0.016313 0.031553
-0.091575 -0.128547 -0.011482
0.010178 0.122644 -0.148608
-0.109374 0.007632 0.156429
-0.003740 0.160868 0.061055
0.156337 0.012224 0.156207
0.093104 0.131721 -0.078249
0.041665 -0.134960 0.156598
-0.113614 -0.114495 0.156215
0.074034 0.033908 0.006571
-0.098571 0.127129 0.024850
0.094346 -0.008253 0.156548
-0.127292 0.102661 -0.125638
0.034492 0.028081 -0.148599
-0.106458 -0.017357 0.001314
0.030986 -0.154303 0.139591
0.029813 -0.120143 -0.148588
0.100380 0.125022 0.065612
-0.154287 0.044069 0.075821
0.031446 0.158307 0.081526
0.098421 -0.029973 -0.148608
-0.088901 -0.132902 -0.120832
-0.059348 0.152998 0.150618
-0.160962 -0.002886 -0.052216
0.155565 0.038880 0.121873
-0.135027 -0.086361 0.073986
0.002766 -0.154677 -0.004536
0.100082 -0.050871 0.001167
0.145205 0.038068 0.156466
0.011749 0.160181 -0.034679
0.140536 0.079622 -0.130056
-0.151970 -0.047724 -0.008201
0.152636 -0.005101 -0.148573
0.142877 0.067083 -0.000170
-0.159817 0.035383 -0.139064
0.144820 -0.053110 -0.058866
-0.046754 0.153323 -0.029123
0.000690 -0.097010 -0.148608
0.037658 0.158361 -0.136134
-0.064135 0.065432 0.156395
0.089569 -0.128506 -0.103567
-0.011668 0.004107 0.006488
-0.135943 0.086843 -0.036645
0.082905 -0.131498 0.068320
0.090802 -0.084895 0.156598
0.056808 -0.145363 0.060440
0.134678 0.085547 -0.052227
-0.162427 -0.017618 0.136802
-0.146967 0.069003 0.143114
0.005847 0.042790 0.156540
-0.150900 -0.052486 -0.034917
0.145860 -0.047888 0.038548
0.043228 0.107084 0.001262
0.157237 0.009320 -0.038265
-0.030884 -0.104584 0.156513
-0.099853 0.057862 0.001476
-0.058647 0.151666 0.092343
-0.057946 0.104398 -0.148608
-0.046539 -0.148614 -0.061991
-0.060916 -0.082126 0.001203
-0.055412 -0.143091 0.156396
-0.122779 -0.104398 -0.108428
0.043794 -0.149408 -0.065617
-0.160199 0.003272 0.023326
0.111341 0.033227 -0.148508
0.052291 0.045634 0.156598
0.131837 0.092899 0.117636
0.063629 -0.030266 0.001044
-0.092686 -0.129001 0.069059
0.138681 0.077517 0.049812
0.041312 -0.105216 0.006734
0.115466 0.112649 -0.111366
0.060592 0.149103 0.139831
0.150723 -0.045165 0.141987
0.085363 -0.074643 -0.148608
-0.024762 0.014223 -0.148608
0.038615 -0.152918 -0.142543
-0.116514 -0.081308 -0.148599
-0.098508 0.128283 -0.051525
-0.049022 -0.146354 0.035140
0.157758 -0.015737 0.094044
-0.040844 -0.144958 -0.148567
0.133715 -0.078096 0.032434
0.081368 -0.029898 0.156598
-0.079832 -0.039304 0.156455
0.028636 -0.067894 0.156598
0.042169 0.154894 -0.089841
0.145972 -0.054503 -0.105479
0.026714 -0.031832 -0.148601
0.089560 -0.130050 -0.146130
-0.127044 -0.011744 -0.148539
0.032181 0.156773 0.039070
-0.035470 0.131317 0.156324
0.001596 0.162347 0.134586
-0.126490 0.101402 0.068696
0.111254 0.114069 -0.024025
0.009235 0.162399 -0.123901
-0.156534 0.045005 0.147384
-0.110173 -0.077883 0.001157
-0.085199 0.139051 -0.122287
0.124455 0.016080 0.001222
-0.080786 -0.136949 0.125619
-0.049173 -0.091150 -0.148585
-0.136819 -0.083939 -0.073174
-0.162176 -0.009560 -0.108435
-0.013636 0.134962 0.006550
0.091290 -0.128253 0.136514
-0.144698 -0.072234 0.122414
0.025859 0.044058 0.001208
-0.156388 -0.036088 0.040034
-0.052510 -0.030879 0.001181
0.102071 0.126029 0.123533
0.064817 0.143734 -0.032308
-0.048252 0.152728 0.030169
0.122251 -0.080904 0.156581
-0.005017 -0.044644 -0.148608
-0.107902 -0.115929 -0.039690
0.094998 0.082189 0.001213
-0.112561 -0.111050 0.026775
0.065901 -0.139327 0.014612
0.127908 -0.090631 -0.088427
-0.098154 0.076891 -0.148608
-0.147519 -0.059031 0.030978
-0.074485 -0.004186 -0.148608
-0.090333 0.132812 -0.017277
-0.038207 0.157884 0.112586
-0.060699 0.030938 0.001331
-0.145702 0.068000 -0.091746
0.157960 0.029865 -0.110186
-0.024063 -0.112971 0.006508
-0.000604 -0.156770 0.097478
-0.161311 -0.009494 0.083275
-0.013749 0.076983 0.156437
-0.120489 -0.063360 0.156205
-0.159670 0.030116 -0.085512
-0.158701 0.028785 0.033406
0.069140 0.037315 -0.148539
0.114927 0.070543 0.156294
-0.002530 -0.155889 -0.057645
0.010276 -0.155324 0.045159
-0.055253 0.123937 0.001043
0.129850 -0.085388 -0.028360
0.152502 0.045256 0.074214
-0.134707 0.087615 0.013357
0.028853 0.009290 0.156598
-0.031430 0.139962 -0.148608
0.155321 0.032611 -0.037839
0.099176 0.047660 0.156426
-0.094458 -0.065762 0.156346
0.107691 0.082633 -0.148443
0.150204 0.055500 -0.092080
0.138041 -0.070788 -0.148608
0.037228 0.092418 0.156598
-0.076754 0.010870 0.006361
-0.064005 0.016262 0.156531
0.049272 -0.071897 0.006739
0.149487 -0.029152 0.001213
-0.009264 0.160767 -0.075074
0.026849 0.077192 -0.148608
-0.153627 -0.049414 -0.090240
0.106267 -0.112547 0.031390
-0.129584 0.022701 0.006255
-0.060778 -0.118893 0.006460
0.077935 0.014413 0.001118
-0.086668 -0.133040 -0.075103
-0.127391 -0.031369 0.156297
0.138927 0.075384 0.024742
0.093993 -0.124365 -0.066458
0.014005 0.071751 0.006517
0.090528 -0.107436 0.001104
0.060541 -0.003171 -0.148543
-0.074624 -0.112678 -0.148556
-0.083193 0.114096 0.156353
-0.162369 -0.002507 0.114657
-0.063145 -0.119217 0.156326
0.024847 -0.018830 0.006617
-0.158567 -0.023725 -0.006465
0.054342 0.148942 -0.060296
0.004640 0.083212 -0.148608
0.156031 -0.024519 -0.077996
-0.135778 0.066775 -0.148606
-0.012259 -0.157954 0.137064
-0.083493 0.093930 0.001182
0.157057 -0.013269 0.061945
-0.119917 0.068838 0.156534
-0.090633 0.134115 0.072284
0.050218 -0.148160 -0.090896
-0.034130 0.053438 -0.148608
0.069012 0.132459 -0.148568
0.055097 0.141424 0.006539
-0.076605 0.143721 0.115419
-0.091734 0.033349 0.156585
0.004941 -0.000668 -0.148608
-0.025815 -0.014010 0.006468
0.098254 -0.082987 0.006744
-0.083739 -0.046543 0.006369
-0.089068 0.120813 -0.148608
-0.069211 0.146709 -0.073854
0.109458 0.050376 0.001225
0.080910 0.139725 -0.098986
0.039890 -0.149283 -0.021728
0.125972 -0.037508 -0.148608
0.115059 -0.104965 0.072045
0.125378 -0.053246 0.001256
0.148447 0.054218 0.035148
-0.145272 0.067811 0.085421
-0.123216 0.105845 -0.089927
-0.032164 -0.154651 -0.114986
-0.014454 0.041227 0.006469
-0.114147 0.036459 -0.148608
-0.007026 0.159892 0.022839
-0.009341 -0.066332 0.156492
-0.109867 0.119765 0.093920
0.063053 0.145108 0.058447
0.152037 0.029210 -0.148588
0.058806 -0.145974 0.120546
-0.002298 0.049114 -0.148608
0.005419 -0.111153 0.156544
-0.068599 -0.142104 -0.125402
0.100406 -0.091162 -0.148608
-0.102174 0.099031 0.156490
-0.156492 -0.041597 0.102578
0.144330 -0.056838 0.093414
0.037932 0.158575 0.151101
0.048884 -0.097157 0.156598
-0.158208 -0.032755 -0.065491
0.015470 0.162650 -0.147910
-0.090197 -0.068478 -0.148518
-0.058507 0.074241 0.001418
-0.051596 -0.059792 0.156511
-0.068037 -0.138917 -0.031956
-0.123487 -0.103528 0.113996
-0.109236 -0.041708 -0.148530
0.105968 -0.014620 0.001206
0.013133 -0.080516 0.001164
-0.124843 -0.063112 0.006447
0.062047 -0.048741 -0.148524
-0.143981 0.007297 0.156319
0.120761 -0.101119 0.132266
0.127929 0.097799 0.079565
0.107220 0.120454 -0.148470
0.054356 0.112311 -0.148584
0.148635 0.056881 -0.046044
0.111894 -0.001820 -0.148608
-0.099458 0.128550 -0.087422
0.120979 0.105749 -0.072912
-0.145799 0.065117 -0.063388
-0.047953 0.155409 -0.129274
-0.159459 0.021488 -0.014131
0.153522 -0.037833 -0.132122
-0.163323 -0.004373 -0.147385
0.055389 0.073376 0.006576
-0.134540 -0.086044 -0.036337
0.153259 -0.004216 0.001189
-0.008328 -0.135074 -0.148603
-0.082884 -0.082435 0.006383
-0.134771 0.091305 0.106394
-0.024841 -0.084014 0.006496
-0.030538 0.153518 0.156354
-0.072835 0.143757 0.052105
-0.145789 0.062527 0.042766
-0.065314 -0.141640 0.084559
-0.132412 -0.088297 -0.009958
0.119541 0.104862 0.022828
0.157950 -0.018177 -0.117427
-0.003770 0.161524 0.098314
-0.023078 -0.155741 -0.087154
0.038178 -0.024878 0.156598
-0.112703 -0.115377 -0.141100
-0.050122 -0.145144 -0.006257
-0.015190 -0.154921 0.027789
-0.148090 0.053649 -0.001750
0.157399 0.026941 0.090834
0.063376 0.006116 0.156598
0.139027 -0.067954 0.068163
0.158855 -0.014583 0.138333
0.029402 -0.152955 0.080343
0.112913 0.114439 0.156208
0.012842 0.117687 0.006493
0.114565 0.018376 0.156416
0.041568 -0.050234 0.006697
0.088931 -0.128833 0.102317
0.074988 0.109554 0.001213
-0.035384 0.157133 0.065954
-0.076777 -0.134914 0.025754
-0.001688 0.161516 -0.100567
0.129255 0.066448 -0.148492
-0.112597 -0.112934 0.076843
-0.030531 -0.153219 -0.030599
-0.135171 -0.010070 0.001425
-0.037280 0.039364 0.156333
-0.048748 -0.149649 0.120589
-0.118961 0.107760 -0.010524
0.016468 -0.064083 -0.148608
0.158846 0.019752 0.131593
-0.033958 -0.036696 -0.148608
-0.149103 0.060263 0.108680
-0.031860 -0.111585 -0.148590
0.104743 -0.047468 0.156597
-0.072205 0.142553 0.007976
-0.002355 0.145363 0.156508
0.091699 0.131858 -0.045118
0.143701 -0.053009 -0.026999
0.009918 -0.157750 -0.137864
0.150616 0.034011 0.006620
-0.039020 0.156500 -0.067457
0.056160 0.150200 -0.114675
0.072514 -0.137528 -0.059168
0.054914 0.150037 0.103773
0.043267 -0.001759 0.006671
0.107014 -0.106139 0.156598
-0.024236 0.158389 -0.007929
0.039113 0.153368 -0.014554
0.072061 0.071958 0.156471
0.039537 -0.151842 -0.111633
0.014181 0.008398 0.001217
-0.049199 -0.006229 0.156523
0.024441 0.159088 -0.053373
-0.111380 0.120059 -0.144426
0.038024 -0.149174 0.023693
-0.002749 -0.034853 0.001226
0.023204 -0.154833 -0.077067
0.005925 -0.110003 0.006612
0.062149 -0.144082 -0.113920
0.155641 -0.020290 0.029043
-0.142208 -0.076057 -0.112714
-0.097579 -0.126534 0.100439
0.070667 -0.089328 0.001041
-0.139797 0.014200 -0.148552
-0.013048 0.161340 -0.146922
0.061639 -0.122204 -0.148608
-0.093171 -0.115831 0.006580
0.065902 -0.140267 -0.017256
-0.141710 -0.049334 0.156146
-0.007057 -0.155325 -0.026966
-0.134407 -0.085854 0.035639
0.036271 0.158327 0.125191
0.071856 0.036242 0.156573
0.114539 -0.101792 -0.006092
0.123100 0.089329 0.001095
-0.117384 -0.108598 -0.077019
-0.141705 -0.078387 -0.145213
0.053077 0.062691 -0.148580
-0.159889 -0.001155 -0.012627
-0.058251 -0.145193 -0.096629
-0.013726 0.108507 0.156441
0.076397 -0.137795 0.150687
0.153406 -0.029640 -0.039891
-0.114258 0.113687 -0.043450
-0.160312 -0.031014 -0.131163
-0.121587 0.105628 0.034403
-0.061957 0.135928 -0.148608
0.112605 -0.108100 0.101467
-0.034266 0.022300 0.001223
0.125331 -0.050654 0.156498
0.063706 -0.054808 0.156598
-0.043553 0.148904 0.000853
0.132388 0.091847 -0.102081
-0.038708 -0.061269 0.006461
-0.101329 -0.121675 0.049953
0.005269 -0.149272 0.156547
-0.012248 0.102009 0.001349
0.054481 0.019639 0.006696
-0.022159 0.159671 -0.047609
0.135849 -0.076297 -0.063770
0.046473 -0.076509 -0.148540
-0.025329 -0.063962 -0.148608
0.131609 0.088930 -0.016956
-0.161791 0.000809 -0.079469
-0.039937 0.050110 0.001330
-0.160652 -0.004600 0.052353
0.092890 0.132048 0.093857
0.150536 -0.038944 0.069944
-0.142788 0.078007 -0.119846
-0.069858 0.074835 -0.148608
0.084790 0.134813 -0.006739
0.098313 0.113730 0.001205
0.108491 -0.061566 -0.148608
0.145082 0.068606 0.118609
0.085420 0.015150 -0.148471
-0.163142 0.012022 -0.118634
0.128767 -0.081739 0.001256
0.154195 0.039850 -0.072512
0.061079 -0.091221 -0.148608
-0.026052 -0.141393 0.006520
0.019214 0.158552 0.012835
-0.161188 0.025040 0.123834
0.140527 -0.070096 0.130636
-0.086160 -0.001627 0.156487
0.112357 -0.108175 -0.090545
-0.152438 0.053312 -0.117477
0.025063 -0.142377 0.000947
-0.146125 -0.067283 0.099870
-0.113531 -0.109848 -0.010254
-0.077056 0.085462 0.156403
-0.019333 0.115656 -0.148608
0.149717 0.059651 -0.121169
0.078703 0.057752 0.001141
0.016603 0.072630 0.156598
0.156935 0.020420 0.057269
0.134502 0.089543 0.154815
0.017338 0.160606 -0.074813
-0.130406 0.030978 0.156397
-0.079545 -0.021828 0.006367
-0.078109 0.074481 0.001442
-0.033500 0.126547 0.001178
-0.089555 0.066851 0.156515
0.081739 -0.010874 0.006652
-0.137355 0.083547 0.038732
0.064325 -0.143433 -0.141158
0.122733 0.102636 0.052343
0.027117 0.159599 -0.102457
0.124152 0.104718 -0.136946
-0.052448 -0.004396 0.006413
0.103776 0.030006 0.001219
0.036198 -0.151879 0.104913
-0.114054 0.085009 0.001143
-0.039005 0.074561 0.156298
-0.086675 0.115128 0.006741
-0.013426 -0.131215 0.156521
-0.135902 0.091527 0.155864
0.077632 -0.133493 0.035221
-0.088585 -0.102478 0.156233
0.032598 0.139933 -0.148608
-0.013526 -0.156007 0.057763
-0.157682 -0.034542 0.072486
-0.058874 0.098466 0.006461
0.070294 0.141373 0.035400
0.137860 -0.076043 -0.115863
-0.014498 -0.158048 -0.148066
0.140773 0.076330 -0.075367
-0.143584 -0.076149 0.152612
-0.082004 0.141276 0.141349
0.081410 0.140496 0.133405
0.004202 -0.000314 0.156526
0.148010 0.064652 0.153053
0.150810 0.046467 -0.015078
0.007991 0.028084 0.001201
0.049400 0.111921 0.156496
-0.091585 0.024557 -0.148608
-0.161145 0.018532 0.073082
0.120138 -0.025635 0.156477
0.032551 0.137170 0.001278
-0.111021 0.117388 0.061817
0.053138 -0.028087 -0.148551
-0.155939 -0.035432 0.016023
-0.158123 0.033414 -0.057688
-0.075385 0.144128 -0.099202
-0.053471 -0.145589 0.063001
-0.054717 -0.093526 0.156444
0.125209 -0.092995 -0.148608
-0.016586 -0.013922 -0.148608
0.138643 -0.071186 -0.084982
-0.104191 -0.016801 0.156412
-0.050758 -0.012500 -0.148608
0.106149 0.010312 0.006528
-0.088790 -0.130938 -0.040679
-0.110352 0.018306 0.001442
-0.121634 -0.038977 0.001290
0.026329 -0.118483 0.156598
0.126113 0.039345 0.006579
-0.159809 0.030109 0.100097
-0.092469 -0.025562 -0.148584
0.073381 -0.137549 -0.084902
0.096682 -0.121853 0.051485
0.038146 -0.052111 -0.148580
0.159042 0.001609 0.114065
0.143860 -0.050642 0.013489
0.155980 -0.011308 -0.018029
-0.014454 0.066167 0.001305
-0.048968 -0.060359 -0.148608
0.152924 0.050587 -0.143458
0.086898 -0.048597 -0.148608
-0.099555 -0.125216 -0.091881
0.153628 -0.034468 0.106314
0.070336 -0.054666 0.001056
-0.073782 -0.140854 -0.147939
-0.009872 -0.091467 0.156566
-0.068480 0.054968 0.001433
-0.090384 0.052210 -0.148608
0.095004 0.132054 0.152591
-0.103435 0.122862 0.000899
-0.072435 -0.137954 -0.053781
-0.111077 -0.095285 0.006560
-0.038153 0.104636 0.156307
-0.105479 -0.118857 -0.059661
-0.085392 -0.135715 0.150017
0.079823 0.138887 -0.064052
0.074906 0.143153 -0.127196
0.010009 0.030515 -0.148608
0.023472 0.160401 0.104857
-0.040203 0.016555 0.156412
0.158522 0.010153 -0.095737
-0.094088 -0.092447 -0.148583
0.034917 -0.150765 0.053628
-0.061416 -0.053091 0.006414
-0.129715 -0.097994 -0.139038
0.017347 -0.041115 0.001230
-0.126604 0.057651 0.001294
0.031036 -0.085551 0.001043
-0.018714 -0.048525 0.001220
0.044544 -0.134782 0.006765
0.137870 0.080762 0.092213
-0.046259 0.085879 -0.148608
-0.047925 0.033739 -0.148608
0.085660 0.068280 -0.148507
-0.044352 -0.097992 0.006463
-0.157536 0.029739 0.009480
-0.071642 -0.079721 -0.148551
-0.094287 0.132628 0.103761
-0.022380 -0.006059 0.156387
0.032271 0.100236 -0.148608
0.041353 0.152241 0.015995
0.030207 -0.008519 -0.148600
0.159260 0.013785 -0.133265
-0.135842 0.089236 -0.097397
0.150199 0.055349 0.094787
0.072861 0.140468 0.156346
-0.161479 0.024369 0.156288
0.060003 -0.125820 0.000984
0.085773 -0.126704 0.000836
0.103690 0.090379 0.156323
0.083848 -0.067261 0.001100
-0.150883 -0.028490 0.156203
0.110411 -0.066972 0.001197
0.053264 -0.148477 0.142792
0.034306 0.071840 0.001199
0.042994 0.052994 0.001217
-0.157692 -0.031210 -0.029398
-0.151246 -0.053755 -0.059190
0.118440 0.110595 0.128218
-0.066947 0.128998 0.156228
0.007280 0.097120 0.001327
0.055140 0.044592 0.001202
0.060024 0.149771 -0.145251
0.046473 -0.024255 0.006697
0.018404 0.158712 -0.008305
0.025224 -0.120278 0.000997
0.080419 0.110912 -0.148542
-0.039417 -0.077137 0.156525
0.134128 0.016978 -0.148608
-0.088238 0.135693 -0.069704
-0.017863 0.160811 0.121778
-0.056702 -0.142523 0.014286
0.059168 0.098951 0.006516
0.036945 -0.046993 0.156598
0.038602 0.030470 0.006632
0.113728 -0.028074 0.001227
0.157396 0.027796 -0.085176
0.158389 -0.003059 -0.080603
-0.145381 0.009337 0.001519
-0.108413 -0.042442 0.156349
0.110191 0.116975 0.083520
0.035790 0.049850 -0.148599
-0.091760 -0.004836 0.001310
-0.099944 0.128706 -0.110227
-0.072518 0.144707 0.074083
-0.004514 0.158150 0.001025
0.156722 0.009940 -0.016621
0.137041 -0.075275 0.091727
-0.154427 0.041382 0.050469
-0.056126 0.090767 0.156282
-0.039800 0.158221 0.137392
-0.143006 0.076978 0.120862
-0.051804 -0.041377 0.156562
0.142445 0.071225 0.070033
-0.033388 -0.154870 0.135023
0.003508 -0.022068 -0.148608
-0.046414 0.124703 -0.148608
0.089390 0.044076 -0.148478
0.062679 -0.003681 0.001053
-0.075500 0.047891 0.156502
0.116850 -0.100527 -0.033025
0.077905 -0.135919 -0.126663
-0.144812 -0.065157 -0.017977
-0.017363 -0.157318 0.116481
0.043112 -0.006389 0.156598
0.145009 -0.057123 0.114565
0.092644 0.129330 0.010624
-0.142509 0.072921 0.065145
-0.136847 0.087117 0.084358
0.009443 0.162817 0.156574
0.086948 -0.064184 0.156598
0.084051 0.019113 0.156537
0.100760 -0.119284 0.120037
-0.017829 0.160336 0.082761
-0.003776 -0.015349 0.006513
-0.130644 -0.090898 0.010527
0.014132 -0.156710 0.112385
0.082783 -0.016022 -0.148523
0.123046 0.067326 0.006599
-0.131200 0.094555 -0.055466
-0.088551 0.027319 0.001404
0.136502 -0.018260 -0.148608
-0.052620 -0.112861 -0.148551
-0.127774 -0.099422 0.154259
-0.161201 -0.020552 -0.090875
-0.012559 -0.157405 -0.121174
0.026392 -0.154738 -0.095637
-0.080279 0.139779 -0.051092
0.107321 0.118659 -0.048310
0.008816 -0.076269 0.156542
-0.122966 0.103456 -0.148608
-0.128832 -0.094844 0.053359
-0.094681 0.100984 -0.148608
-0.103370 -0.047294 0.001208
0.020136 -0.096897 0.156598
-0.048594 -0.147046 -0.041684
-0.021453 -0.049875 0.156506
-0.160519 0.018913 -0.043521
-0.114713 0.115654 -0.116250
0.070563 -0.087111 0.156598
-0.153464 0.041469 -0.017154
0.145883 -0.045528 -0.005705
-0.005096 0.101112 -0.148608
-0.003747 -0.138178 0.001131
0.027037 0.055216 0.156598
0.134193 -0.000036 0.006558
0.107390 0.119987 -0.086462
-0.049844 -0.149642 -0.125971
-0.059223 0.151339 -0.113014
-0.123396 0.103723 -0.028444
0.115835 0.104674 0.001142
-0.070953 -0.063973 0.156446
0.016042 0.057448 -0.148608
-0.023162 0.059180 0.156383
-0.082684 -0.129238 0.006563
0.075458 -0.107452 0.001050
-0.021199 0.038017 -0.148608
-0.034940 0.005790 0.006443
0.056673 0.087420 0.156521
-0.073009 -0.136160 -0.010810
0.126982 -0.091613 0.081121
0.039832 0.085723 0.001203
-0.106370 0.120877 -0.018013
0.005934 -0.121082 -0.148608
0.068553 -0.013162 0.156598
-0.139310 0.082298 -0.071200
0.130327 0.091752 0.038598
-0.094564 -0.126600 0.029205
0.154922 0.033613 0.041285
-0.152287 -0.054637 0.122476
-0.090662 0.133131 0.042004
-0.137295 -0.047685 0.006419
-0.163155 0.007524 0.132847
-0.138343 -0.011660 0.156303
0.158368 0.001568 0.084495
0.037069 0.156309 -0.072693
0.044990 0.124461 0.006511
-0.076196 -0.138142 -0.100198
0.105412 -0.112936 -0.019400
-0.124486 0.105539 0.118473
0.077028 0.137977 0.016146
-0.133313 0.033082 -0.148579
-0.143502 -0.070374 -0.043478
0.116643 -0.102686 0.052847
-0.063246 0.148679 -0.038210
0.125944 -0.095207 -0.132297
-0.125496 0.103695 0.094718
-0.003744 -0.094083 0.001234
0.156730 0.036269 -0.130965
0.114695 0.053658 -0.148462
0.063192 0.146680 -0.095364
-0.024600 0.158271 0.014962
0.050571 -0.077930 0.156598
-0.028182 -0.155765 -0.133834
0.064836 0.146642 0.119903
-0.110856 -0.060862 -0.148466
0.121282 0.106752 0.109533
-0.074275 0.141794 -0.011827
-0.014953 0.161010 -0.127836
0.085527 -0.103214 -0.148608
-0.104778 0.039641 0.001490
-0.033784 -0.152070 0.024498
-0.056058 0.051949 -0.148608
-0.008034 0.081986 0.006466
-0.094846 0.077790 0.006461
0.157008 -0.023057 0.121236
-0.008714 -0.072048 0.001240
-0.083334 -0.104277 0.001196
-0.078284 0.139797 0.025753
-0.048418 0.054717 0.156346
-0.022872 0.116848 0.006425
-0.134772 -0.088176 0.122018
-0.074691 -0.060818 0.001179
0.102739 0.121298 0.025573
0.101593 -0.117896 -0.050370
-0.053784 0.006168 -0.148608
-0.135901 0.084809 -0.005269
-0.101147 0.107554 0.006744
-0.029160 -0.154206 -0.066531
-0.145741 -0.012496 -0.148486
-0.075529 -0.138109 0.099777
0.022548 -0.142231 0.156598
0.033746 -0.066604 0.001071
0.155721 0.013403 0.006674
0.021177 -0.147558 -0.148608
0.147900 0.053845 0.016561
0.111254 0.114549 0.043852
-0.135567 -0.087614 0.142222
0.113461 -0.008308 0.156476
-0.110150 0.118524 -0.062195
-0.036880 -0.143092 0.156445
-0.016055 -0.155427 -0.045003
0.157808 -0.021849 -0.142662
-0.014025 0.161360 0.144392
0.049526 -0.146763 0.043073
-0.087109 0.131858 0.000875
-0.006958 0.160302 -0.037208
-0.066128 0.150364 0.133711
-0.040686 -0.131237 0.001245
-0.160205 -0.030419 0.123779
-0.159476 0.013574 -0.148508
0.155583 -0.024713 -0.057439
-0.002930 0.160805 -0.057893
0.125775 0.103196 0.143275
0.063466 -0.033736 0.156598
0.068388 0.131532 0.001236
-0.051240 0.153340 0.075709
0.081848 -0.130439 0.014275
-0.030399 -0.129786 -0.148577
-0.054360 0.152489 -0.148092
-0.079535 -0.021100 0.156479
0.052198 0.020484 0.156598
0.022900 0.149960 0.156573
-0.135954 -0.087780 -0.125370
0.092570 -0.002427 0.001163
0.088588 -0.102895 0.156598
0.158335 0.018323 0.107146
0.052275 0.080769 -0.148583
-0.012485 -0.153334 0.006650
0.143007 0.073611 -0.111867
0.008503 0.046138 0.001191
-0.159889 -0.017601 -0.041009
-0.079847 0.142729 -0.139069
0.141957 -0.067054 -0.130891
0.132003 -0.086528 0.142559
0.046591 -0.148434 0.077619
-0.148621 0.064739 -0.136229
-0.133463 -0.088724 -0.054051
-0.070964 -0.094776 0.001202
-0.035658 0.098300 0.006407
-0.053133 0.154003 0.121487
0.119398 0.106734 -0.055227
0.081725 0.093992 0.006548
-0.054097 0.015242 0.006403
0.114965 0.039519 0.156365
0.072216 0.053999 0.156513
0.021215 -0.155608 0.096141
0.132287 0.018094 0.156386
0.117168 -0.102299 -0.074569
0.151321 -0.039214 -0.086601
0.081540 -0.132855 0.086800
-0.066603 0.108223 0.156286
0.018556 0.162136 0.139257
0.129362 -0.087023 -0.051466
0.134783 0.049829 -0.148567
-0.070807 -0.004789 0.001246
-0.138950 -0.081151 -0.096280
-0.113019 0.032981 0.156450
0.154207 -0.031052 0.085122
-0.117252 0.002754 -0.148574
-0.139882 -0.076021 0.022255
-0.069658 -0.139690 -0.070949
0.062932 -0.072220 0.006788
0.130786 -0.084600 0.048358
0.157611 -0.023310 0.153390
-0.041068 -0.077680 0.006462
0.017152 0.159305 0.030100
-0.033922 -0.000574 -0.148608
0.159823 -0.006561 -0.130225
0.051686 0.133786 -0.148589
0.015950 -0.154652 -0.015852
-0.108016 0.122180 0.110976
0.153715 0.039929 -0.055206
0.112622 -0.066525 0.156598
0.013341 -0.154427 0.009153
-0.100274 -0.125770 -0.135096
-0.156117 -0.045525 -0.146701
0.002166 0.101778 0.156527
0.071282 0.141723 -0.048127
-0.109462 -0.023000 -0.148560
0.019393 0.161575 0.121505
-0.074567 -0.061350 -0.148576
-0.009750 -0.123028 0.006565
0.039582 -0.149912 -0.038886
-0.145985 -0.063787 0.047400
-0.080840 -0.087204 0.156333
-0.151002 -0.054830 0.084216
0.076331 -0.137332 0.133621
-0.125648 -0.099616 0.079227
0.152141 -0.038714 -0.103718
-0.037796 -0.037661 0.006454
-0.047905 -0.129458 -0.148548
-0.005368 -0.156293 -0.074433
-0.121043 -0.107039 0.140596
0.125823 -0.038257 0.006527
-0.161553 0.016783 -0.073670
-0.083772 0.131296 0.156307
0.040402 0.156494 -0.114242
-0.140860 0.050580 -0.148584
0.145695 0.069814 -0.146233
-0.076987 0.142756 0.090292
-0.030738 0.063325 0.006430
0.102788 -0.117475 -0.079102
-0.136418 0.037334 0.001447
-0.061316 0.149696 -0.059297
0.103561 -0.022747 0.156538
-0.161297 0.012176 0.053478
0.003289 -0.156579 -0.089735
0.052291 0.150381 -0.077247
-0.161951 0.015074 0.089474
-0.006431 0.019532 0.001193
-0.063257 0.033002 0.156482
0.093193 0.041855 0.006528
-0.107637 0.121470 0.077426
-0.159466 -0.014975 -0.022041
-0.121071 0.005470 0.001433
0.027039 0.105120 0.001299
-0.098775 0.048479 0.156597
0.064379 0.142998 -0.007294
0.147783 -0.052882 -0.137411
0.107010 0.121541 -0.122605
-0.127781 -0.080009 0.156107
-0.151809 -0.051414 0.063010
-0.052291 0.110526 0.001224
0.075635 -0.030940 -0.148534
0.154569 0.036589 0.059759
0.069422 -0.070283 -0.148608
0.141192 -0.046046 0.156414
-0.157653 -0.037314 -0.100734
-0.047910 0.120463 0.156255
0.132726 0.089688 -0.069949
0.059840 -0.144389 -0.067217
0.020179 0.017516 -0.148608
0.072581 -0.138284 -0.101364
-0.110331 0.052482 -0.148608
0.047368 -0.130427 -0.148608
-0.112771 -0.112061 0.056874
-0.089488 0.045735 0.001467
-0.049814 0.154270 -0.099834
-0.021386 0.159453 0.031051
0.132072 -0.083227 0.064694
-0.028927 0.144327 0.006720
0.095219 -0.121551 0.010916
-0.152092 0.048642 -0.057353
0.095513 -0.123353 0.074744
-0.113901 0.115315 -0.080443
-0.012582 -0.087531 -0.148608
0.140596 0.045632 0.001171
0.160085 -0.003237 0.152762
-0.162693 -0.005898 -0.124279
-0.103872 -0.120963 -0.076799
-0.071744 0.112196 0.001063
0.034932 0.156020 -0.041365
-0.088226 -0.131221 0.050014
0.136654 -0.019264 0.001224
0.107673 0.072433 0.006576
-0.159064 -0.009397 0.001289
-0.126107 0.104394 0.156577
-0.090183 -0.000319 -0.148608
-0.142323 0.077165 0.104585
-0.162281 0.016860 0.108891
0.053067 -0.144720 -0.008728
-0.162231 0.002001 -0.095452
0.121508 0.054149 0.156284
0.123227 -0.097373 0.096099
-0.108867 0.121057 -0.098004
-0.162701 -0.019641 -0.142678
-0.055611 -0.076518 -0.148590
-0.145846 -0.070207 -0.127352
0.116997 -0.104892 -0.141280
0.138794 -0.072289 0.107299
-0.127648 -0.098334 -0.094507
0.025001 0.133465 0.156598
0.156272 0.001012 0.016669
-0.158937 -0.028726 0.057724
-0.058956 -0.146570 -0.148583
-0.108853 0.069440 0.001281
-0.134705 -0.075554 0.006559
0.101459 0.125883 0.107687
0.016801 -0.156494 -0.119160
0.026119 0.158271 -0.028309
0.123214 0.101116 -0.022586
-0.120717 0.087126 0.156597
-0.160752 -0.019208 -0.073228
0.144017 -0.053887 0.053046
-0.146821 0.066622 -0.107440
0.105583 -0.115095 0.134470
0.048413 0.150982 0.058962
-0.015039 -0.029626 -0.148608
0.100606 0.096709 -0.148476
-0.001474 0.067287 0.006485
-0.136250 0.045594 0.156399
-0.160637 0.005968 -0.026639
0.152606 -0.029301 -0.014211
-0.096541 -0.087905 0.156226
0.028795 0.002618 0.001232
0.017626 -0.057925 0.006618
-0.043016 0.066327 -0.148608
-0.095079 0.130565 0.056764
0.036246 0.152774 0.001267
0.057374 0.066831 0.156583
-0.000026 0.057191 0.156510
0.053582 -0.061787 -0.148526
-0.105446 0.003565 0.001379
0.025455 -0.076755 -0.148598
-0.132144 0.094203 -0.078142
-0.106346 -0.062826 0.001166
-0.005890 0.147683 -0.148608
0.122090 -0.054111 -0.148608
-0.039279 -0.149343 0.010278
-0.119113 -0.105347 -0.038291
-0.002859 0.160323 0.037721
0.007705 0.085268 0.156556
0.132594 0.092875 -0.129729
0.131053 0.093468 0.097720
0.157730 0.002059 0.060406
0.148828 -0.038863 0.022093
0.096527 -0.001415 -0.148543
0.106110 0.012421 -0.148546
-0.132112 0.093314 0.056897
-0.159469 -0.029571 0.086919
0.059948 -0.044885 0.006759
0.052911 -0.145385 0.023744
-0.003640 0.161750 0.116102
0.145541 -0.052697 -0.074172
0.026028 0.061108 0.006567
0.008429 0.150070 0.001219
0.139249 0.019780 0.001199
0.013125 -0.155580 0.060126
-0.159902 0.015349 0.013894
0.131063 0.091874 0.065892
-0.079948 -0.122976 0.156301
-0.114422 -0.109936 0.041828
-0.160137 0.012141 -0.002156
0.088061 -0.127628 -0.052843
0.058198 0.113145 0.001236
-0.057042 0.151520 -0.081487
-0.125321 0.099922 0.000757
-0.025377 0.120037 0.156378
-0.121105 0.019063 0.156409
-0.057174 0.150082 0.018305
-0.019299 0.026949 0.006465
0.035824 0.016692 0.001230
-0.122388 -0.101162 0.032540
-0.089076 -0.060617 0.006363
-0.005750 0.159839 -0.013880
0.076238 0.139661 0.053663
0.123876 -0.091371 -0.011572
-0.073954 0.010830 -0.148608
0.085658 0.069910 0.006534
0.100268 -0.120487 -0.096760
0.113729 -0.001969 0.001240
0.103745 -0.113937 -0.001712
0.044583 0.151549 0.032474
0.008916 0.161687 -0.090005
0.136392 -0.063336 0.001247
-0.015388 -0.026914 0.001211
-0.018764 -0.154385 -0.017775
0.150109 0.054151 -0.073074
0.155888 -0.021212 0.049413
-0.080448 -0.134800 0.062918
-0.157975 0.039991 -0.125066
-0.048726 0.029903 0.156418
-0.006850 0.114838 0.006457
-0.019386 0.044867 0.156402
0.051525 0.097798 -0.148585
-0.094744 -0.129349 0.140532
-0.091996 -0.130628 0.118402
-0.124070 -0.098900 -0.015917
0.129957 -0.088490 -0.115776
0.143975 0.067068 -0.036464
-0.145216 -0.072107 0.137139
-0.047743 -0.151033 0.146651
0.050494 -0.123180 0.156598
-0.025765 -0.068282 0.006488
-0.113854 -0.109233 0.010134
