-0.033510 0.192766 0.093003
0.169581 -0.093835 0.140105
-0.105990 -0.014515 -0.179372
-0.136516 -0.134173 0.152638
0.128409 0.132207 -0.179390
0.028879 -0.185941 -0.101479
-0.021691 -0.006552 0.007843
-0.007457 0.012496 0.188845
-0.136637 0.140794 -0.093429
0.165251 0.099486 0.124793
0.184993 -0.033556 -0.179258
-0.158837 -0.098389 -0.051303
0.026672 -0.187093 0.146343
0.133821 0.144462 0.158112
-0.187915 0.046016 0.092923
0.154131 0.057184 0.001467
0.189159 0.032113 -0.020713
-0.002355 0.196595 -0.128702
-0.026291 0.062560 -0.179389
0.020090 -0.131385 -0.179390
0.093326 -0.104790 0.001491
-0.099947 -0.130242 -0.179389
0.107340 0.162424 0.101687
-0.194376 0.008492 -0.106177
-0.007368 0.126245 0.007662
0.106788 -0.080237 0.188872
-0.117564 0.134574 0.188727
-0.140372 0.106604 0.188660
-0.073257 -0.139749 0.001176
0.048094 -0.182159 0.077715
0.150823 -0.117970 -0.107151
0.136915 0.046324 0.188850
0.173201 -0.081351 0.060335
0.095116 0.168787 -0.030421
-0.140646 0.007444 0.001407
-0.121065 0.146323 -0.179316
-0.130118 0.145503 0.063925
-0.018518 -0.106096 0.189034
-0.164414 -0.025614 0.188583
0.001007 0.143416 0.188759
0.193838 0.028576 -0.177343
0.193211 0.000095 0.062167
-0.174043 -0.070914 0.059439
0.068140 0.001278 -0.179367
-0.038877 -0.182530 0.047138
0.023689 0.126030 -0.179389
-0.067758 -0.175583 -0.089102
0.070777 0.037619 0.001445
0.124422 -0.146580 -0.176501
-0.080084 0.173423 -0.013463
-0.100776 0.098882 0.001733
-0.168705 -0.087692 -0.152401
-0.071115 -0.175551 0.156518
0.059807 0.185179 -0.042234
-0.195071 -0.010144 0.187388
-0.129876 -0.097465 0.188820
0.149544 -0.116869 0.050827
0.158666 0.109428 -0.088557
0.086102 -0.079834 -0.179331
-0.017738 -0.025298 -0.179389
0.180527 -0.063996 -0.045074
-0.178191 0.074383 -0.028524
-0.183030 0.070813 -0.175843
-0.145546 -0.119330 -0.017480
0.192017 0.028260 -0.096483
0.023497 -0.184385 -0.029195
-0.055151 0.189033 -0.150019
0.194159 0.022217 0.157764
0.077453 -0.017689 0.189034
0.005777 -0.084847 0.001231
-0.133287 -0.134065 0.072106
0.053442 0.189289 -0.139350
0.066239 0.063325 0.188993
0.007190 -0.084230 0.189034
-0.188485 -0.026298 -0.021259
0.102316 0.061515 -0.179389
0.019012 0.192784 0.024696
0.157903 0.106935 0.042531
0.056856 -0.152848 0.189010
0.055232 0.190751 0.174130
-0.091032 0.007607 0.188918
0.096285 -0.163249 0.177157
0.064764 0.111009 0.001633
-0.160114 0.112358 0.117772
-0.091124 -0.045946 0.007815
-0.052277 -0.175145 0.001020
-0.058788 0.186540 -0.087084
-0.081373 -0.169743 0.119021
-0.032515 0.045158 0.007752
-0.191700 -0.020291 0.103390
-0.042555 -0.184538 -0.168199
0.146434 -0.124321 0.133444
0.087536 0.117982 0.188901
0.145316 0.127425 0.023541
-0.169060 0.102659 -0.158786
0.139889 -0.023705 0.001481
0.104909 -0.157149 -0.136989
0.157695 -0.105450 -0.021420
0.189831 0.036631 0.075406
-0.099211 0.166903 0.130946
-0.082093 0.173738 0.060061
0.054633 -0.182070 -0.155023
-0.049786 0.191560 0.176123
0.122356 -0.142939 -0.022703
-0.166998 -0.019715 -0.179318
-0.064522 0.082426 0.189010
-0.092485 0.167515 -0.040294
0.078677 -0.105004 -0.179390
-0.052163 -0.055667 -0.179389
-0.108448 0.061102 -0.179354
-0.184927 -0.051561 -0.088604
0.037822 0.191995 0.103889
0.175099 0.083949 0.157021
-0.052593 0.134759 -0.179389
-0.186028 0.045460 0.024701
0.186460 -0.044409 0.188759
-0.125659 0.151432 -0.134111
0.047915 -0.028313 0.001413
0.195434 -0.001993 0.135663
-0.097178 -0.163172 -0.142655
-0.133996 -0.135395 -0.179389
-0.133599 -0.063379 0.007788
-0.086511 -0.128025 0.188989
-0.129933 -0.137588 -0.086908
0.090153 0.170797 0.031199
-0.130094 0.144196 -0.011060
0.104643 -0.154095 0.063875
-0.053758 0.021039 0.007762
0.178059 0.077078 -0.125880
-0.004152 0.194656 -0.024651
0.118924 0.154317 -0.119644
-0.180261 0.073092 -0.095646
-0.172543 -0.080555 0.158324
0.037973 0.039431 -0.179390
0.186693 -0.050972 -0.111729
-0.049873 -0.121054 -0.179346
0.167713 -0.090542 -0.179307
0.170603 0.092135 -0.149049
-0.073174 -0.075998 0.188964
-0.182105 0.074551 0.174201
-0.003146 -0.189302 -0.119089
-0.014136 -0.122803 0.008172
-0.016342 -0.179978 0.188794
0.016838 0.066603 0.007782
0.087129 0.024443 -0.179370
-0.174284 0.083434 0.031491
0.093055 -0.161362 -0.074360
0.065576 -0.162399 0.001515
0.072525 0.182598 0.148024
0.150797 -0.029728 0.188719
0.178726 -0.028045 0.007986
0.147825 0.125568 -0.051490
-0.168597 -0.085454 0.127070
0.030579 -0.066264 -0.179317
0.025732 -0.185354 0.053060
0.100664 0.008817 0.189025
-0.049506 -0.181164 -0.049075
0.102304 -0.157682 0.122533
0.134251 -0.005424 -0.179253
0.083758 0.175487 -0.072961
-0.030404 -0.185719 0.105442
-0.190863 -0.010265 0.027756
-0.167385 0.023233 0.188500
0.073448 0.103662 -0.179390
0.083000 0.143773 -0.179390
0.145124 0.129416 0.075008
-0.138037 0.060414 0.007597
-0.154679 -0.104239 0.037133
0.144433 -0.103925 0.188781
-0.052450 -0.099591 0.008019
-0.184886 -0.055165 0.150612
0.170046 0.083701 -0.013730
-0.093345 -0.162411 0.057772
-0.125969 -0.138647 0.018089
0.192551 -0.000181 -0.030600
0.015866 0.091124 0.188681
0.055267 0.188186 0.081435
-0.190970 0.028287 -0.059403
-0.047646 0.158222 0.007892
0.088090 -0.037141 0.001345
0.010691 -0.181063 -0.179389
-0.070058 0.065857 -0.179389
0.112622 0.095047 0.001566
-0.179187 -0.058212 0.010117
-0.115678 -0.026728 0.188865
0.023598 0.014863 0.007879
-0.047635 0.187871 0.022750
-0.104592 0.051511 0.007652
0.120594 0.078924 -0.179388
-0.052969 0.132070 0.189032
-0.183576 0.064498 0.123220
0.179735 0.069966 -0.067164
-0.156482 -0.105933 -0.098166
-0.111975 0.153448 0.007782
0.180996 0.070397 0.115289
-0.192431 -0.025112 -0.145197
-0.085186 0.173817 0.106089
-0.106236 -0.154799 -0.032064
-0.041429 -0.069208 0.001470
0.108541 0.159910 0.013942
0.185761 -0.051817 0.110593
-0.114924 0.058346 0.188800
0.015475 0.197358 -0.174180
-0.093818 -0.165468 0.161038
0.066440 -0.175478 -0.053446
0.139514 0.117503 0.188962
0.037790 0.157116 0.001280
-0.181678 -0.055806 -0.030608
0.129591 -0.072485 -0.179368
0.138611 -0.073203 0.007928
0.113704 0.031509 0.001464
-0.158501 0.110356 0.032885
0.044649 -0.099051 0.001328
0.045036 -0.185652 0.166792
-0.009412 0.020318 -0.179389
0.195603 0.003234 -0.146149
-0.016387 0.171155 -0.179389
0.013662 0.196399 0.142177
0.000010 0.195174 0.061306
-0.024530 0.074761 0.188836
-0.044036 0.095143 0.007662
-0.055936 -0.035508 0.188906
0.015271 0.194603 -0.070310
-0.028904 -0.186805 0.139224
-0.150836 0.043685 -0.179216
0.034626 -0.185621 0.105479
-0.158202 0.114590 -0.100881
0.002831 -0.167278 0.008251
-0.048082 -0.148943 0.008166
0.038906 -0.048103 0.189034
0.153259 -0.116749 -0.159646
-0.091664 0.117417 -0.179371
-0.192328 -0.004435 -0.058855
-0.059771 0.003986 -0.179389
0.184277 0.041848 0.188662
0.117169 -0.148364 -0.087649
0.058883 -0.081579 0.189034
-0.024112 -0.043154 0.007929
-0.007202 -0.187676 -0.069292
0.001977 0.171831 0.001172
-0.009719 -0.079099 -0.179363
-0.174691 0.085600 0.080010
0.085249 0.155474 0.188765
-0.020503 -0.049142 0.188996
-0.101224 -0.095035 0.001516
0.146214 0.036338 -0.179321
-0.134128 -0.018749 0.007721
-0.191741 0.014356 -0.008824
0.071513 -0.171675 0.038385
0.159756 -0.102186 0.025152
-0.191008 0.025101 -0.179231
0.178021 0.072791 0.072724
0.049074 0.189939 -0.096631
-0.151530 0.124848 0.146262
0.138761 -0.126994 0.011318
-0.100338 0.165220 -0.094577
0.131231 -0.139972 0.157731
0.012364 0.190808 0.188741
-0.046504 -0.133075 0.189034
-0.192680 -0.020656 0.143361
-0.052610 0.038338 0.188959
0.021997 -0.154501 0.008171
-0.158187 -0.101899 0.093402
0.172607 -0.085012 -0.086462
-0.149734 0.123462 -0.046958
-0.123402 -0.090895 -0.179337
-0.134982 0.079366 -0.179289
0.040415 0.146987 0.188600
0.188641 -0.035075 0.065332
-0.173050 0.089143 -0.066648
0.159163 -0.106085 0.091785
-0.162467 -0.063973 -0.179249
-0.066978 0.133322 0.007610
-0.073495 -0.158509 -0.179389
0.073087 -0.148554 -0.179390
0.095618 -0.119767 0.188857
0.127286 -0.141297 0.078434
-0.192911 0.020878 0.124213
0.163856 0.093503 0.188784
0.033353 0.028916 0.188966
-0.126510 -0.140695 0.099099
0.031819 -0.021978 -0.179378
-0.058670 -0.026021 0.007826
-0.061842 -0.179472 -0.137717
0.004404 -0.023381 0.189017
0.173546 -0.065246 -0.179390
-0.154904 0.063590 0.188614
0.190091 0.028330 0.037796
-0.119241 -0.148306 -0.160212
0.059574 0.184481 0.016347
-0.116861 0.158935 0.180576
-0.192862 0.029571 0.165555
-0.059530 0.187563 0.144688
-0.188787 0.051191 -0.142802
0.074192 -0.174205 0.139505
0.100223 -0.135339 0.007896
0.139286 0.094518 0.001533
-0.016810 0.081597 0.001630
0.168654 0.012402 0.007949
0.088771 0.175448 -0.140834
0.143402 -0.124358 -0.054761
0.119231 0.153439 -0.078059
0.165867 0.095504 0.084435
0.176834 -0.078624 -0.141042
-0.079406 0.180295 0.186428
-0.146007 -0.122665 -0.142116
0.009349 -0.131483 0.189034
-0.008342 0.031718 0.007803
-0.192661 0.007578 0.056950
0.071577 -0.174594 -0.104519
-0.044877 0.188517 -0.013578
0.161065 -0.077303 0.188869
0.193857 -0.002608 -0.071388
0.009106 -0.047020 0.008016
0.175556 0.073657 0.021409
0.176761 -0.070573 0.020660
0.132292 -0.139809 0.186461
-0.043750 0.109604 -0.179389
-0.100700 0.016523 -0.179375
-0.023676 0.193559 -0.070491
0.115635 0.155725 0.059312
0.167427 0.067210 -0.179336
-0.183575 -0.058701 -0.131937
0.193176 0.019748 0.107778
-0.151343 0.119005 -0.001219
0.129935 0.142947 -0.008246
-0.137689 -0.134234 0.184067
0.107369 0.073210 0.189034
0.009538 0.073330 -0.179389
-0.138521 -0.127940 -0.050183
-0.093543 -0.163407 -0.068750
-0.126919 0.148006 -0.044836
0.051055 0.120990 0.188733
0.135445 -0.136063 -0.138011
-0.089653 0.173022 -0.140858
0.189623 -0.027970 -0.029401
0.105260 -0.152292 0.026311
0.186173 -0.007635 0.188540
0.037957 -0.185218 -0.125788
-0.007160 0.196402 0.119304
-0.179507 0.067191 0.012974
-0.033675 -0.185142 -0.100761
0.033412 0.093327 0.001663
0.156064 0.116909 -0.128412
0.190948 0.042983 -0.135032
-0.011280 0.134376 -0.179389
-0.004848 -0.187727 0.068521
0.116008 0.152229 0.188909
0.078026 0.177932 0.076028
-0.129355 0.017558 0.188772
-0.124338 -0.106271 0.007871
0.106810 0.163354 0.139058
0.039996 0.086189 -0.179390
-0.010278 -0.186220 0.028418
-0.192825 -0.001324 0.078312
0.191853 -0.002990 0.010790
0.023738 0.192313 -0.025694
0.123500 -0.028467 0.188850
-0.011498 -0.152361 -0.179389
0.070524 0.158447 0.001208
-0.185541 0.047300 -0.014053
0.188030 -0.047715 0.152517
-0.052984 -0.177694 0.188515
-0.058837 0.185518 -0.039446
0.115675 0.054024 0.001466
-0.163867 -0.098321 0.186507
0.109858 -0.015500 0.007861
0.086600 0.086415 0.001594
0.134739 -0.082041 0.188746
-0.027671 -0.183452 -0.011594
-0.189273 0.044266 -0.109583
0.010087 0.054789 0.188779
-0.049898 0.171838 -0.179389
0.183412 -0.049968 0.031573
0.188570 -0.038747 -0.063150
-0.177372 0.082651 -0.135792
0.112003 0.159848 -0.160566
-0.145787 0.133353 -0.160180
0.128373 0.145466 -0.048034
-0.086208 0.153358 -0.179373
0.027765 0.124235 0.007709
0.049862 -0.150411 -0.179390
-0.183132 0.058970 0.056067
0.060529 -0.039757 -0.179320
0.025453 -0.172377 0.189034
-0.060853 0.061484 0.007692
-0.153076 0.011470 -0.179239
0.068822 -0.002258 0.001482
0.051792 0.190548 -0.175414
0.076636 0.179781 0.111760
-0.168985 -0.012256 0.001418
0.070922 0.027716 0.189034
0.030471 -0.184232 -0.059602
-0.056853 -0.003776 0.188943
-0.085277 -0.097525 -0.179389
0.069678 -0.177336 0.188860
0.139499 0.137033 0.108309
-0.090091 0.112585 0.188831
-0.184334 -0.054707 0.117172
-0.121042 -0.145811 -0.127600
-0.071844 0.041692 0.007708
0.150968 -0.050408 0.007944
0.012772 -0.004900 0.001468
-0.101985 -0.008101 0.001435
-0.193929 0.021318 -0.139100
-0.020826 0.196556 0.184354
-0.163859 -0.085727 0.000609
0.160220 0.103875 -0.179374
0.140381 0.135559 -0.096062
-0.165067 0.026407 0.007796
-0.139206 0.135607 0.032174
-0.094937 -0.047547 -0.179389
0.013934 -0.122107 0.001277
0.058756 -0.129944 0.007996
-0.072340 -0.070733 0.007893
-0.118171 -0.061530 0.188880
0.081284 0.142415 0.001420
0.099320 -0.007217 -0.179317
0.062755 -0.058575 0.008070
-0.158118 0.113404 0.083950
0.029219 0.013811 -0.179390
0.046013 0.188819 0.048854
0.180631 -0.061749 -0.012894
-0.129511 0.147903 0.135543
0.193063 -0.020933 -0.123293
0.099871 -0.155377 -0.018522
0.186395 -0.056426 -0.155318
-0.130756 0.115646 -0.179294
-0.169596 -0.057362 0.188692
-0.006728 -0.188720 0.117369
0.139731 0.008369 0.007894
-0.037816 0.192869 -0.121520
0.194505 -0.014550 0.165602
-0.041589 -0.084630 0.189024
-0.097223 -0.145193 0.008059
0.154591 -0.114856 0.165299
-0.059001 -0.179221 0.089554
0.022561 -0.098131 -0.179318
-0.107844 -0.153949 0.189004
0.182271 0.063506 -0.040020
0.098420 -0.075286 0.007869
0.046183 0.046858 0.001456
0.087760 -0.164713 0.093596
0.053965 0.003650 0.189034
0.139004 0.138899 -0.148697
0.047525 -0.116104 -0.179390
0.153039 0.003214 0.188758
0.188939 0.050276 0.139391
-0.021714 0.121344 0.188866
-0.041217 0.190634 0.060963
0.103054 0.106541 -0.179390
0.084532 0.176328 -0.108582
0.132908 -0.134692 0.035538
-0.134634 0.091361 0.001711
-0.079671 -0.110451 0.007986
-0.122491 0.149567 0.020494
0.046166 -0.181251 0.032361
0.152981 -0.034446 -0.179207
-0.147582 0.129488 -0.123729
0.003813 -0.048100 -0.179380
0.030620 -0.070332 0.001232
-0.071499 -0.024934 -0.179389
0.052353 0.141388 -0.179389
-0.073905 0.095863 0.007624
-0.195555 -0.006159 -0.178155
0.073964 0.057438 -0.179390
0.100962 0.039515 0.189034
0.004565 -0.008555 -0.179389
-0.184986 0.056331 -0.071177
0.193339 -0.011789 0.091906
-0.023312 0.192419 0.030742
0.033207 0.188434 0.000996
0.172272 0.085143 -0.091986
-0.167567 0.103671 0.147504
0.042788 0.192262 0.142391
0.194839 0.002637 -0.114820
-0.114416 0.157543 0.109445
-0.136742 -0.014849 -0.179279
-0.142394 0.134524 0.090065
-0.160422 -0.100707 -0.124925
0.129480 -0.140295 0.112398
-0.094646 0.023240 0.001406
-0.186192 -0.039716 0.034287
0.048863 0.089390 0.188830
-0.165120 -0.085204 -0.024459
0.027849 -0.180363 0.001308
-0.082110 -0.037445 0.189022
0.088476 0.053950 0.001474
0.167669 0.011701 -0.179226
-0.103474 -0.156565 0.027728
0.113220 0.099538 0.189034
0.129260 -0.094835 0.001468
-0.025095 -0.094681 0.001275
-0.076357 -0.170544 -0.037826
-0.161849 -0.101298 -0.179373
-0.117683 0.124908 0.001855
0.098118 0.012121 0.007970
-0.004573 -0.190186 -0.159343
-0.127776 -0.140542 0.126619
0.190526 -0.021551 0.037979
-0.153723 -0.112045 0.121843
0.090446 -0.161688 -0.045059
-0.178631 -0.064680 0.088571
-0.078564 -0.171941 -0.120348
-0.057488 -0.104865 0.189024
-0.153901 -0.046355 0.007817
0.109106 -0.054107 0.188885
-0.107899 -0.156178 0.136015
0.159074 -0.089170 0.001413
-0.043731 -0.001537 0.001448
0.121801 -0.144503 -0.055018
-0.175833 -0.071807 -0.109127
-0.091607 0.167338 0.032502
-0.032473 0.134038 0.001711
0.160684 0.110715 0.165567
0.134645 0.139582 0.051098
-0.080939 -0.172088 0.186889
0.010669 0.195327 0.092929
0.090196 0.170415 -0.178996
-0.084856 0.151298 0.001605
0.125079 -0.047285 0.007895
0.115772 0.031545 -0.179351
0.163661 -0.102136 -0.134293
0.080233 -0.172123 -0.165566
0.176457 -0.080568 0.165432
0.158605 0.103508 0.011495
-0.192226 -0.032821 -0.173374
-0.092056 0.085118 -0.179376
-0.172090 -0.072412 0.030461
0.045650 0.016872 0.001458
-0.032267 0.172231 0.188964
-0.065124 0.185111 -0.115411
0.025063 -0.187603 -0.158550
0.046044 0.069232 0.007814
-0.144948 -0.040799 -0.179325
0.188434 0.028575 0.008016
-0.066546 -0.174479 0.046075
-0.030600 -0.119818 0.001151
0.002954 -0.188511 0.147303
0.099881 -0.157285 -0.179362
0.017308 -0.185640 0.025631
0.053902 0.133168 0.007801
0.066511 -0.082482 0.001364
-0.092307 0.168825 -0.071502
-0.027289 0.179454 0.001259
0.127097 0.019469 0.188868
-0.174241 0.088197 0.104240
-0.031988 -0.186184 -0.142897
-0.114228 0.156437 -0.068794
0.171150 -0.086249 -0.053258
-0.094424 0.078334 0.007624
0.150452 0.030521 0.007906
-0.112421 0.086417 0.188784
-0.138497 -0.008659 0.188743
-0.006299 0.149159 0.007879
-0.097345 -0.163638 -0.168460
-0.029647 -0.094884 -0.179367
-0.067451 -0.177883 -0.162445
0.144403 0.063517 -0.179353
-0.033920 -0.184230 0.074491
0.009212 0.105027 0.001699
-0.047113 0.044105 -0.179389
0.026076 0.195315 0.164771
0.098153 -0.159895 -0.110223
-0.162363 0.095259 0.007811
0.011278 0.171345 -0.179389
0.006130 0.045956 -0.179389
-0.041414 -0.163287 -0.179389
0.089571 0.175698 0.168718
-0.091180 0.157396 0.188789
-0.190135 0.032305 0.057598
0.055141 -0.180390 -0.083531
-0.010584 0.197315 -0.165696
0.059956 -0.066916 -0.179250
-0.020440 0.089372 -0.179389
0.168502 0.067336 0.188749
-0.191379 -0.035202 0.167874
-0.086061 0.175167 0.152116
0.031320 -0.020444 0.189034
0.179717 -0.068221 0.090394
0.182011 -0.062382 -0.075047
0.189713 0.049881 -0.161251
-0.194973 0.003660 0.158306
-0.020384 -0.132357 0.189034
0.065295 -0.043293 0.189034
-0.021679 -0.017320 0.188884
-0.008568 -0.186691 -0.042574
-0.094993 -0.162510 0.084338
0.190093 -0.034361 0.130784
0.149276 -0.119636 0.106894
-0.154291 -0.106820 0.063675
-0.113443 -0.151187 -0.102625
-0.023401 0.195111 0.140215
-0.017568 -0.147606 0.001227
0.186138 0.056417 -0.088647
0.082751 -0.138532 0.001511
0.033780 -0.121735 0.189034
-0.081179 -0.025507 0.007797
-0.089089 0.073077 0.188868
-0.068020 0.173337 0.007882
0.101762 0.137253 0.001459
0.069905 -0.132168 0.188976
-0.185302 -0.047993 0.061756
-0.038487 0.193965 -0.175828
0.140396 0.118122 0.001543
0.114396 -0.120365 0.007909
0.059429 0.184866 -0.016552
-0.148402 0.038876 0.001482
-0.078001 0.034357 0.188966
0.018399 -0.187854 0.168516
0.185714 0.053236 0.040710
-0.168983 0.096642 -0.036853
-0.031706 -0.159685 0.189034
-0.174954 0.008639 0.007889
0.036697 0.191037 -0.059893
-0.046739 -0.182168 -0.076403
0.135416 0.071003 0.007862
-0.083443 -0.165672 0.012058
0.069906 0.180903 0.052400
-0.164190 0.103653 0.054102
-0.046911 -0.024582 -0.179389
-0.142225 0.134294 -0.069765
0.020628 0.194545 -0.093490
-0.121255 0.015512 0.007685
-0.178123 -0.030006 0.007951
0.058373 0.088399 0.007801
0.016919 0.042823 0.001447
0.126380 -0.047671 -0.179231
0.050011 -0.183090 0.125045
0.166629 -0.099567 0.179095
-0.189900 0.031325 -0.034711
0.169753 0.086894 -0.051962
-0.053417 -0.125734 0.001191
0.138602 -0.120041 -0.179352
0.016226 0.005249 0.188972
0.037995 0.053216 0.188905
-0.106450 0.026911 0.188853
-0.159099 0.075183 0.001646
0.114138 0.155939 -0.021410
0.053432 0.170870 0.188576
-0.056260 0.167218 0.188970
-0.191471 -0.002374 -0.025544
0.075663 -0.170291 0.062442
0.178253 -0.073447 0.119119
-0.112664 -0.150811 -0.070841
0.157687 -0.106691 -0.046959
-0.021805 0.194548 -0.103192
0.084318 -0.098167 0.188946
-0.023424 0.107671 0.007669
-0.010043 -0.062279 0.008014
0.128171 -0.141558 -0.108271
0.054710 0.187635 -0.072757
0.071839 0.133568 0.188781
-0.092645 -0.164861 -0.102047
0.149683 0.127028 -0.169355
-0.034651 0.193263 0.119047
0.185747 0.056975 0.087669
-0.193570 0.007886 -0.079413
-0.120326 -0.144193 0.054621
-0.157996 0.072635 -0.179184
0.016507 -0.187451 0.126245
0.187039 0.057789 0.162061
-0.029804 -0.165637 0.008254
-0.113647 0.036588 -0.179350
-0.129498 0.007888 -0.179314
-0.025884 0.149320 0.188916
0.046855 -0.180429 -0.030587
-0.095274 -0.084547 0.188983
-0.007590 0.039033 0.188755
-0.061767 0.094249 -0.179389
0.137317 0.139682 -0.121954
-0.160934 0.109261 -0.068399
0.130056 0.146713 0.134994
-0.073031 -0.172769 -0.066349
-0.096250 -0.160311 -0.011531
0.145260 0.127856 -0.028275
0.155473 -0.111038 -0.085219
0.169447 0.041332 0.001448
-0.059304 -0.051240 0.007869
0.120031 -0.120020 0.188915
0.161253 -0.072769 0.001420
-0.004392 -0.020806 0.001477
0.079238 -0.172336 0.163959
0.004345 -0.061017 0.189034
0.187614 0.047118 -0.055824
-0.044290 -0.061402 0.188934
-0.019579 -0.057908 -0.179389
0.142005 0.133015 -0.072895
-0.106877 0.164781 -0.177383
0.093884 0.168396 -0.001874
-0.149324 0.123678 0.049417
-0.050097 0.118346 0.001778
-0.124355 -0.140428 -0.029328
-0.134339 -0.040651 0.188779
0.184280 0.018578 0.188618
0.096441 0.168800 0.058527
0.072728 0.067774 0.001540
0.096203 0.108455 0.007818
0.143025 -0.125204 0.072886
-0.155943 0.120380 0.178410
-0.036724 0.005467 -0.179389
0.136095 0.143399 0.181770
0.077066 0.180775 -0.159981
-0.104126 0.165395 0.162514
-0.048697 0.189010 -0.066544
-0.193132 -0.012813 -0.114779
-0.146014 0.131207 0.124862
0.036157 -0.046903 0.008079
0.006958 -0.187684 0.098945
0.081930 -0.048058 -0.179253
0.167848 0.089824 0.054130
0.179162 -0.070839 -0.103613
0.116998 0.117399 0.001571
-0.028488 -0.129032 -0.179389
-0.110901 -0.052415 0.001475
0.038216 -0.044448 -0.179349
0.124408 -0.003154 0.188863
-0.043057 0.061514 0.188929
0.015784 -0.188172 -0.137782
-0.139338 -0.113301 -0.179337
0.077083 -0.173013 -0.143109
-0.019727 -0.188691 0.159889
-0.105781 0.164494 -0.154340
0.020160 -0.100908 0.008191
0.098111 -0.143967 0.188862
0.181018 0.074313 -0.162726
-0.003828 0.102203 0.188745
0.068490 0.081624 -0.179390
-0.175999 0.041954 -0.179334
-0.142079 -0.125764 0.091151
-0.042650 -0.185151 0.156965
0.012205 0.193123 -0.005542
-0.012529 0.011590 0.001444
0.063759 0.184942 -0.112818
0.190580 0.028211 -0.042737
0.055342 0.189147 0.117552
0.034228 0.193432 -0.128655
0.032018 0.106605 0.188699
0.188239 0.050439 0.108258
-0.110081 -0.153681 0.106951
0.156759 0.112765 0.095341
0.108868 -0.064273 -0.179289
0.191493 -0.019250 -0.052780
0.025001 -0.070861 0.189034
0.123131 -0.141895 0.016524
0.086111 -0.072215 0.188958
-0.173533 -0.071409 -0.043995
-0.061612 -0.177386 0.067682
0.145696 -0.119684 -0.010904
-0.115501 -0.084024 0.001502
0.108402 0.160858 -0.046121
0.067456 0.016849 0.007975
0.194804 -0.014870 -0.156630
0.003373 0.117784 -0.179389
-0.150147 -0.115183 0.188845
0.187965 -0.048255 -0.135108
-0.115535 -0.151201 0.168776
0.051009 -0.172154 -0.179390
0.129939 -0.060556 0.188780
-0.191891 0.011208 0.024434
0.024135 0.132567 0.188616
-0.011044 -0.181433 -0.179389
-0.048786 -0.183237 0.131199
0.193402 -0.015401 0.118701
-0.174821 0.055023 0.188437
0.112997 -0.150937 0.103188
0.169434 -0.007827 0.001448
0.075090 0.182466 0.183295
0.094184 -0.031395 0.188986
0.193301 0.022578 -0.128282
-0.172300 0.094014 0.124952
0.174945 -0.075709 -0.025480
0.055878 -0.018441 0.189034
0.008488 -0.188104 -0.094745
-0.181113 0.070153 0.094605
-0.034773 -0.021168 0.001469
0.014178 0.146988 0.001457
-0.136709 0.137253 0.009981
-0.099726 -0.029692 0.001458
-0.173622 -0.074311 -0.087922
0.117292 -0.070697 0.007893
0.004603 0.082289 0.001626
0.155839 -0.056587 0.188670
-0.190273 0.040060 0.115229
-0.076699 -0.091702 0.001457
0.048935 -0.177368 0.001469
0.147313 -0.118942 -0.032886
-0.186703 0.032117 0.188403
-0.055846 0.186535 0.046122
0.002741 0.171894 0.188777
0.095568 0.170630 -0.091384
0.117277 0.005943 0.001383
0.106285 0.127821 0.188949
0.189363 -0.033490 0.086430
0.004410 0.196198 -0.108694
-0.135951 -0.134625 -0.156296
0.052811 -0.180204 0.052345
-0.192171 0.033511 -0.156207
0.119618 0.151624 0.027410
-0.184850 0.063377 -0.126124
-0.065303 0.155588 -0.179389
-0.164642 0.105111 -0.179155
-0.042202 0.193251 0.155057
0.157018 0.110608 -0.062967
-0.024887 0.027200 0.188791
-0.190638 -0.022935 -0.068555
0.191796 0.002078 -0.008614
-0.186490 0.025727 0.007947
-0.015721 0.057546 0.007755
-0.157175 -0.107236 0.141914
-0.121462 -0.143248 -0.049842
0.179428 -0.065692 0.044762
0.167370 -0.016747 0.188639
0.022038 0.153452 -0.179389
-0.192162 0.019734 0.074132
0.007869 0.194771 -0.054257
0.065299 -0.129206 -0.179390
0.045738 0.066189 -0.179390
0.166632 0.093866 -0.071313
0.114318 -0.153167 0.179451
0.175641 -0.082759 -0.162513
0.175431 0.078807 0.092112
-0.022228 0.192385 -0.014828
0.042362 0.188832 0.028493
-0.189849 -0.035283 0.121593
-0.074225 0.020113 0.001416
0.180508 -0.070100 0.148091
-0.003124 0.192155 0.008245
-0.174156 0.045028 0.007834
-0.007966 -0.129850 -0.179389
0.193193 0.025958 0.137603
-0.178453 -0.070477 -0.157764
0.152350 0.122019 0.113486
0.116282 0.076190 0.007924
0.171783 -0.086209 0.084970
-0.139263 0.076656 0.188684
-0.060214 0.082017 0.001646
-0.170407 -0.083225 -0.132613
-0.029657 0.125733 -0.179389
-0.118928 -0.030574 0.001453
0.085897 -0.158524 0.001498
0.091621 -0.164787 0.149851
-0.066310 -0.173758 -0.013478
0.011716 -0.185730 -0.009542
0.056398 -0.180497 0.106090
0.161128 -0.104278 0.112369
0.107112 -0.036212 0.007866
0.142818 -0.130226 0.172244
-0.058352 0.188471 -0.171880
0.105564 -0.084647 -0.179390
-0.111999 -0.128457 0.007961
-0.076347 0.178593 -0.092362
-0.100875 0.165693 -0.114548
-0.015260 -0.186336 0.047769
-0.021571 0.193283 0.058482
0.006971 -0.187042 0.046462
-0.069281 0.143559 0.188899
0.100178 0.167192 0.083687
-0.021941 -0.183948 0.008339
0.027913 0.192959 0.083269
0.174776 0.086572 -0.177088
0.010440 0.021197 -0.179389
-0.175130 0.089980 0.163881
0.039226 0.189925 -0.037811
-0.185682 -0.053961 0.170518
0.189232 -0.039277 -0.096010
-0.081980 -0.168799 0.097800
0.137615 -0.131651 -0.072168
0.044916 -0.169197 0.189034
-0.174979 0.081069 -0.010279
0.174520 -0.082653 -0.118643
-0.164715 -0.088932 -0.067515
-0.157695 -0.106962 -0.143846
-0.113604 -0.107916 -0.179376
-0.008588 -0.102821 0.008130
-0.131099 -0.077872 0.188790
-0.095150 0.046734 -0.179378
0.110286 -0.150220 0.045537
0.049483 -0.181091 -0.063019
0.102983 0.166767 0.187529
-0.083888 -0.010611 0.188975
0.133066 0.099036 0.188971
0.042569 -0.139483 0.189034
0.000549 -0.136366 0.001262
0.092064 -0.160622 0.050398
0.000959 -0.186634 0.010003
0.152035 -0.053948 -0.179308
-0.098047 0.164548 0.053593
0.114551 -0.152667 -0.160808
0.041476 -0.153476 0.008077
0.101464 0.166711 -0.109589
0.107212 0.010605 -0.179338
-0.076249 -0.111463 0.188965
-0.002180 -0.115790 0.189034
-0.186755 0.047853 0.071636
0.014459 -0.186897 0.070876
-0.190700 -0.002573 0.000718
-0.177055 0.082315 -0.116338
0.173826 -0.056112 0.007991
0.174724 -0.061218 0.188823
-0.188483 -0.042528 -0.122334
0.094119 0.059003 0.189034
0.193227 -0.019363 0.146865
-0.171440 0.005268 -0.179369
-0.152941 -0.110032 -0.065651
-0.019668 -0.006052 -0.179389
0.080674 0.174644 0.014837
0.192378 -0.002128 0.030055
0.120465 -0.018918 -0.179247
-0.077469 0.176779 -0.062115
-0.049850 0.039735 0.001454
-0.125801 0.148682 0.045484
0.122188 0.152339 -0.146153
0.168369 0.085695 0.008338
-0.050084 -0.146204 -0.179389
-0.036392 -0.186889 0.185850
0.153455 -0.077784 -0.179390
0.185300 0.062151 -0.135372
0.056251 0.044986 -0.179390
-0.036452 0.078729 -0.179389
0.061716 0.149744 0.188682
-0.172373 -0.071376 -0.013515
0.034567 0.165102 0.188588
0.030136 -0.021636 0.001488
0.105204 -0.153762 -0.053945
-0.001555 0.090820 -0.179389
0.062586 -0.179622 0.158678
-0.150876 -0.028798 0.001441
-0.076535 0.012751 -0.179389
-0.134816 0.116152 0.007517
-0.002847 0.122490 0.188760
-0.089641 -0.074742 0.001501
-0.060705 -0.180767 0.171358
0.045205 0.104307 -0.179390
-0.195033 0.007240 0.180115
0.091254 -0.012589 0.007978
0.077854 -0.170151 -0.081075
-0.178581 -0.071147 0.179669
0.004936 -0.104556 -0.179322
-0.135706 0.032632 -0.179286
-0.166446 -0.045665 -0.179219
0.135332 -0.134961 -0.092274
-0.026567 0.052653 0.188826
-0.165533 -0.089796 -0.101002
-0.098928 0.133244 0.188786
0.104726 -0.151916 0.000588
0.145740 0.131744 0.164780
0.068014 -0.065364 0.189034
0.191168 -0.014979 -0.015980
0.117517 0.156129 -0.177918
0.106554 0.163810 0.157630
-0.087311 -0.127610 0.001289
-0.071311 -0.140074 -0.179378
-0.097160 -0.025486 0.188927
-0.192423 -0.028405 0.188605
-0.085397 0.134813 -0.179378
-0.007493 0.196964 -0.147509
-0.024812 0.195470 0.160769
0.101983 -0.156288 0.081979
-0.061652 0.113973 -0.179389
0.042486 -0.116023 0.008110
0.159004 0.110105 -0.106934
-0.014995 0.195159 0.102741
0.033602 -0.158874 -0.179390
-0.194299 0.002974 0.120576
0.168647 -0.096213 -0.150899
-0.149396 0.121973 0.016937
0.036878 0.180686 -0.179348
0.049614 -0.081102 0.008111
-0.095236 -0.161824 -0.044804
0.165910 -0.098349 -0.115158
0.040968 -0.084785 0.189034
0.192525 0.008965 -0.046313
-0.190630 -0.016989 -0.036709
-0.185761 0.048991 -0.033966
-0.105251 -0.090449 -0.179387
-0.191703 0.018552 0.041004
0.156916 0.084535 -0.179361
-0.031415 -0.071587 -0.179389
-0.077867 -0.008024 -0.179389
0.185075 -0.051011 0.085423
0.071195 0.182435 -0.129083
-0.153002 -0.105889 -0.008093
0.051409 -0.006786 0.001481
0.004418 0.024517 0.001437
0.068755 -0.175077 -0.179390
-0.003730 0.195630 0.082163
0.161485 0.110567 0.183651
-0.179873 0.071883 0.069641
-0.111938 0.086101 0.007591
-0.177795 0.085373 0.187858
-0.064846 0.182329 -0.022868
-0.146078 0.127586 -0.029940
0.164879 0.049508 -0.179315
-0.181003 0.067068 -0.044567
0.064971 0.177164 0.000988
-0.036770 -0.026841 0.188851
0.045959 -0.183162 -0.105825
-0.109221 0.080268 -0.179349
-0.182823 0.068967 0.140457
