0.019933 -0.046407 0.129365
-0.023668 0.025290 -0.122845
-0.013911 0.000917 0.001004
0.082777 -0.104332 -0.016754
-0.076356 0.105968 0.077118
0.109500 -0.076149 -0.030879
-0.105479 -0.083479 0.107478
0.108750 0.071968 0.083529
-0.095536 -0.093515 -0.073366
0.018010 0.127453 -0.057356
0.002819 -0.133883 0.068420
0.062961 -0.025341 -0.122858
0.005542 0.040315 0.129469
-0.124333 0.044806 -0.062661
0.115494 0.054801 -0.035205
0.129342 -0.033553 0.098276
0.033508 0.124999 0.089860
-0.076309 -0.040187 -0.122863
0.022502 -0.133252 -0.104470
-0.131898 0.012181 0.043265
-0.075874 0.002012 0.129404
0.019582 -0.075374 0.001200
-0.092889 -0.096291 0.080477
-0.098425 0.085102 -0.028103
0.084500 0.029165 -0.122836
0.133008 -0.008726 0.096167
-0.061197 -0.081978 0.001111
-0.012499 -0.087463 0.129241
-0.059895 0.115166 -0.112827
0.041943 0.082244 0.005541
-0.009599 -0.061009 -0.122863
0.086901 -0.102051 0.058019
0.084201 -0.005084 0.005280
0.133114 0.001059 -0.104709
0.059707 -0.116097 -0.009389
0.032177 -0.085754 0.129462
-0.131707 -0.013444 -0.044890
0.030493 -0.013702 0.129377
0.033731 0.108930 -0.122863
-0.026623 0.125399 0.021484
0.106447 -0.083387 -0.116662
-0.024566 0.112152 0.129469
-0.044557 -0.127399 -0.098514
-0.101203 0.050959 -0.122840
0.087116 0.044649 0.129357
-0.132857 -0.013369 0.086741
-0.011079 -0.133081 -0.029383
-0.114111 0.068899 0.123138
0.088985 0.094917 -0.100441
-0.083958 0.035230 0.001009
0.127809 -0.032652 0.032056
0.128894 0.019772 0.020512
-0.019379 -0.131288 -0.010902
-0.133565 -0.014244 -0.112188
0.059895 0.112962 0.040698
-0.084590 -0.103541 -0.111408
-0.010404 0.129041 -0.092665
0.007854 -0.009704 0.000988
-0.004882 0.077421 0.000865
0.067978 -0.114799 0.083636
0.132157 -0.003905 -0.058889
-0.119722 -0.049896 0.015160
0.089885 -0.056881 0.129238
0.064927 0.099538 0.129469
0.005672 -0.057011 0.129300
-0.054822 -0.123639 0.118805
0.130704 -0.023871 -0.060516
0.050130 -0.097997 -0.122856
0.116291 -0.062840 0.019032
0.074784 -0.111626 -0.076505
-0.048628 0.065843 -0.122852
-0.054555 -0.121546 0.040678
-0.027089 0.124968 -0.012426
0.079867 0.101286 -0.034673
-0.053504 0.063986 0.129412
0.027819 0.054790 -0.122859
-0.066440 0.110155 -0.059894
-0.102278 0.082796 -0.086832
-0.089473 0.093173 0.018737
0.046093 0.025954 0.001014
-0.045808 -0.127377 0.096921
-0.069534 -0.063986 0.129436
-0.113313 0.066085 0.043822
0.026889 -0.014724 -0.122863
0.033641 -0.120442 0.129388
-0.077722 -0.019852 0.000999
-0.070174 -0.112535 -0.027464
-0.066056 0.077052 0.129331
-0.024107 0.127546 0.078663
-0.115385 -0.065697 -0.086358
-0.018901 -0.111028 -0.122863
0.066314 -0.024195 0.000970
0.117103 0.013943 0.129175
0.120958 0.047830 -0.096189
0.129813 -0.021712 -0.007609
0.128370 0.031226 0.102098
0.090809 0.012288 -0.122806
0.011782 0.127010 -0.003234
-0.128418 0.008745 0.129134
0.003313 0.073487 -0.122825
0.114802 -0.069770 -0.093145
0.025417 -0.130169 -0.004340
-0.096141 -0.015982 -0.122822
-0.124878 0.044598 0.090354
-0.123221 -0.049781 0.129269
0.092692 0.065008 0.005383
0.101195 0.084334 0.127479
-0.116872 -0.060483 0.068569
-0.115584 -0.061233 -0.036951
0.050056 0.119779 -0.084598
0.071106 -0.070718 0.001177
0.045617 -0.123279 0.033735
0.056175 -0.016232 0.129407
0.106675 -0.082276 0.100691
-0.051668 0.066345 0.000980
-0.096807 -0.091182 0.034323
-0.128409 0.026197 -0.010294
-0.062122 -0.118573 -0.070712
0.003882 0.007787 0.129403
-0.081021 -0.084139 0.129408
-0.056022 0.116001 -0.087326
-0.031391 -0.036284 0.005362
0.130237 -0.022965 0.047972
0.040261 -0.126571 -0.048923
0.100922 0.080368 0.033110
-0.003692 0.128844 0.080407
-0.029454 -0.040229 0.129361
0.110416 -0.076359 0.065677
-0.062648 -0.086989 -0.122863
-0.130482 0.028084 -0.105971
0.022480 -0.131422 -0.032572
0.079686 -0.109377 0.127315
-0.075311 0.108056 0.126766
-0.092499 0.080550 -0.122854
0.058204 0.096680 -0.122863
0.020652 0.125987 0.129005
0.047729 0.118379 -0.007236
0.088352 0.092986 0.024127
0.034775 0.040940 0.129401
0.127736 -0.035801 -0.122797
-0.082293 -0.003258 0.000974
0.076136 0.105246 0.081128
-0.032085 -0.011553 0.129469
0.042934 0.023406 -0.122863
-0.014371 0.086006 0.129469
-0.102735 0.082487 0.099217
0.092005 -0.047034 -0.122782
-0.053373 0.114372 -0.010872
-0.127221 -0.007301 0.005455
-0.011129 -0.134343 -0.096809
-0.026382 -0.065409 0.005310
-0.001004 0.042299 0.000932
-0.110568 0.038165 0.129184
0.003860 -0.134136 -0.075209
-0.103839 -0.082032 -0.014054
0.090864 -0.096390 0.005854
0.048553 0.119806 0.061265
-0.036731 -0.035974 -0.122863
0.129565 0.015450 -0.021372
-0.066334 0.045924 -0.122767
0.005531 -0.132796 0.027807
-0.124218 0.042617 -0.031230
0.025809 0.083837 0.129469
-0.016280 -0.129934 0.129281
0.130823 -0.004772 0.129115
0.119100 -0.059879 -0.069192
0.122936 0.039463 0.052995
0.102526 -0.008676 -0.122765
0.118024 -0.055698 0.129043
0.124920 -0.043610 0.059321
0.078139 0.104567 0.099585
-0.021827 0.108789 -0.122863
-0.055654 0.003177 -0.122839
-0.132837 -0.008577 -0.075298
-0.109756 0.063368 0.000959
0.019979 0.126456 0.031898
0.030619 -0.131093 0.091937
0.009710 0.020227 -0.122863
-0.052164 0.116051 0.047360
-0.045411 -0.010922 -0.122861
0.106090 0.075160 -0.067783
-0.046033 0.024606 0.005524
-0.129703 -0.028382 0.044841
-0.109479 -0.055100 -0.122850
0.095559 0.064686 -0.122847
0.131290 0.010754 0.066419
-0.002604 -0.108784 0.000921
0.028671 -0.048300 -0.122863
-0.050278 0.119346 0.110750
-0.020065 0.126885 -0.049765
-0.063679 0.039546 0.129398
0.104908 0.033829 0.001008
-0.085677 -0.055324 0.001066
-0.024313 -0.130822 0.033991
0.067606 -0.074471 0.129300
-0.050914 -0.117151 0.000689
0.108931 -0.039174 0.005312
0.017699 0.106606 0.000861
-0.036389 -0.128678 -0.057023
-0.109153 0.014524 -0.122723
0.001220 0.129188 0.116057
0.114782 0.063397 0.125710
-0.019390 -0.088281 -0.122863
0.076952 0.026373 0.005339
0.067136 0.012354 0.129397
0.128351 0.028451 -0.063149
0.031754 0.044413 0.005451
-0.129680 -0.031771 -0.075953
-0.035411 0.035384 0.129469
0.100299 0.080519 -0.015515
-0.104599 -0.083805 0.083173
-0.048242 -0.126008 -0.116594
-0.111350 0.070820 -0.056022
0.056045 -0.121386 -0.105555
-0.110343 -0.072373 0.039034
-0.128848 -0.034934 0.077604
0.059589 -0.009108 0.005302
0.056594 -0.087453 0.001252
-0.075954 0.104908 0.043694
0.060183 0.057936 0.001010
0.082776 -0.106995 -0.116511
0.050033 0.118472 -0.044447
0.086938 -0.102224 -0.057535
0.059066 0.050231 -0.122863
0.014039 -0.090144 -0.122863
-0.026206 -0.098654 0.005420
-0.130526 0.020918 -0.045704
-0.102092 0.084101 0.125316
0.007429 0.130082 -0.122395
0.022104 -0.048385 0.001079
0.117443 -0.001265 0.000970
-0.076977 -0.027867 0.129469
-0.122424 0.052920 -0.116586
0.061356 -0.058516 -0.122850
0.090758 -0.021133 0.129270
0.117001 0.050647 0.031046
-0.132740 0.012769 0.073192
0.062519 0.113938 -0.102285
0.055495 -0.047044 0.129367
0.060103 0.072320 0.129421
0.015781 0.017500 0.005405
-0.029799 0.100183 0.000989
0.122107 -0.049395 -0.026366
-0.130722 -0.013286 -0.013969
-0.083527 0.067270 0.001008
-0.124968 0.037581 0.023237
-0.079371 -0.107718 0.095215
0.109403 0.071766 -0.101641
-0.000731 -0.135039 0.107805
-0.078614 -0.106823 0.006254
-0.132882 -0.020665 0.112838
-0.088115 -0.099921 0.058838
-0.119608 -0.049951 -0.006332
0.003644 0.128318 0.048265
0.069957 0.094665 0.000821
-0.050840 0.117558 0.071072
0.085531 -0.104184 0.090983
0.061640 -0.116413 -0.041873
-0.042563 -0.094082 0.129216
0.070345 0.108426 -0.061749
0.119843 0.013814 -0.122730
0.124784 0.040020 -0.122819
0.099459 -0.087535 0.031045
0.002625 -0.025526 0.129286
-0.102446 -0.087304 -0.103328
-0.089105 -0.098391 -0.036759
-0.050279 -0.003333 0.001008
0.063464 -0.002450 -0.122863
-0.133903 0.007061 0.106905
-0.023444 -0.131805 0.064246
-0.109524 0.006361 0.129258
0.027768 0.126597 -0.101420
0.049329 -0.122704 0.064189
-0.101738 0.082508 0.067243
-0.058075 0.050743 0.000966
0.031777 -0.103683 0.005322
0.120088 -0.059231 0.090031
-0.118116 -0.059722 0.092020
-0.020872 0.127221 0.049749
-0.066395 0.111373 0.098508
0.121450 0.039619 -0.008528
-0.124036 0.043075 0.052713
-0.007288 -0.029160 -0.122863
0.020426 0.126180 -0.031909
0.003340 -0.132602 -0.010136
-0.130491 0.025233 -0.081695
-0.111020 -0.073394 -0.063650
-0.043893 -0.125764 -0.025155
-0.105638 -0.065763 0.129367
0.100330 -0.088872 -0.080169
0.130096 -0.028985 -0.089176
-0.073230 0.080500 -0.122863
-0.106345 -0.020572 0.005415
0.094099 0.089144 0.068261
-0.094987 0.090350 -0.068798
-0.061529 0.110648 0.018649
-0.118338 0.059025 -0.083904
-0.022910 0.058391 0.129469
0.070476 -0.111791 0.033952
0.119696 -0.031387 0.129064
-0.066274 -0.115778 0.063958
-0.109566 0.014134 0.005442
-0.034436 -0.129579 0.129179
-0.071041 -0.114524 -0.098138
0.097416 0.085017 -0.040553
-0.048153 0.092224 0.129401
-0.021046 0.053684 -0.122786
0.120395 0.047879 0.088161
0.023010 -0.132390 -0.071933
0.080416 -0.046634 0.001070
-0.121202 0.054610 0.107213
-0.026073 -0.132788 -0.118766
-0.036101 0.124365 -0.065298
0.010250 -0.096949 0.129383
-0.005590 0.127248 -0.021040
0.083572 0.085978 -0.122860
-0.082485 0.023027 -0.122752
-0.125356 -0.039826 -0.036343
-0.130150 -0.033602 -0.119882
0.105683 -0.073612 0.001080
-0.067104 0.017445 0.000920
-0.064003 0.110224 -0.031490
-0.026717 -0.067760 0.129248
-0.130442 -0.016609 0.022077
-0.009572 -0.079212 0.001171
-0.130619 0.015511 0.008919
0.063115 0.112028 0.070180
-0.084991 0.097225 -0.007339
0.028756 -0.129743 0.014698
-0.024924 0.084491 -0.122863
-0.056890 -0.059529 -0.122863
0.033987 -0.016533 0.005319
0.040978 0.010911 0.129401
0.051844 -0.123023 0.102917
0.131266 -0.003986 -0.026989
0.041153 0.123781 0.113650
0.048050 0.119002 0.019997
0.004256 -0.122400 -0.122863
0.095509 0.009357 0.129277
0.120429 -0.059413 -0.115027
0.009222 0.072987 0.129469
-0.114199 0.063566 -0.021790
-0.027164 -0.129587 0.014562
0.096709 -0.093908 0.112507
0.125642 0.035259 0.073983
-0.022840 0.011040 0.129469
-0.099417 -0.086822 0.007740
-0.081889 0.103237 -0.121138
0.019228 0.072436 0.005560
-0.060161 -0.054674 0.005365
-0.003591 -0.052313 0.005305
0.079157 -0.066118 -0.122816
-0.079715 0.104016 -0.087864
0.004911 0.099873 0.129469
0.033652 0.001126 -0.122863
0.048618 -0.059281 0.001127
-0.089982 -0.072604 -0.122863
-0.125936 -0.043617 -0.098579
-0.009428 0.115588 0.005571
-0.076596 -0.108954 0.034723
0.103936 0.079582 0.104518
0.019929 -0.134311 0.117683
-0.019213 -0.133295 0.090942
0.034241 -0.069996 -0.122863
0.111985 -0.023661 0.005347
0.129517 -0.025946 -0.033057
0.084141 0.097605 0.048019
-0.029163 0.042584 0.000862
-0.045190 -0.126658 0.069273
0.057147 0.116106 0.094554
-0.095320 0.089139 0.053601
0.024351 0.126372 0.062199
-0.132789 0.007012 -0.063688
-0.014977 -0.018898 0.000984
0.051426 -0.119607 0.007294
-0.074895 0.002643 -0.122817
0.098893 0.016111 0.000992
-0.079825 -0.106777 -0.058128
0.005997 0.048458 -0.122847
0.027825 -0.130788 0.046928
0.119802 -0.053852 -0.008144
-0.030898 0.074684 0.000937
0.024194 0.126961 -0.081157
-0.095836 0.090615 -0.104282
-0.123515 -0.013749 0.129226
0.131453 -0.018225 0.073351
0.130483 -0.009416 0.011197
-0.120231 -0.050994 0.042330
0.014657 0.100244 -0.122863
-0.120456 0.044691 0.005663
-0.010423 0.061810 0.000848
0.115924 0.054893 0.054335
0.004216 -0.035839 0.001024
0.117584 -0.061839 0.045454
0.088536 -0.086564 0.129212
-0.033724 -0.068613 -0.122863
-0.128602 0.029054 0.060968
0.093939 -0.058432 0.005191
-0.091194 0.020801 0.129316
-0.134046 0.006849 -0.114864
-0.014810 0.129059 0.093302
-0.052159 -0.024159 0.005426
-0.001790 0.127791 0.021921
0.043138 0.122530 -0.113579
-0.007539 -0.133614 0.046436
-0.112797 0.066096 0.026097
0.129970 0.017543 0.046777
-0.088586 -0.098117 -0.010215
-0.045627 -0.047293 0.005361
0.128036 0.033807 0.120515
0.087505 0.083911 0.005450
0.125420 -0.014588 -0.122756
0.041293 -0.064980 0.129431
0.101269 0.039138 -0.122863
-0.066469 0.088320 0.001019
0.048598 0.071201 -0.122861
-0.082429 0.100920 -0.043253
-0.096885 0.047631 0.005437
0.039865 -0.125449 -0.014119
0.027968 0.092329 0.005600
0.118266 -0.060455 -0.046229
0.032126 0.106609 0.129469
-0.026343 -0.131694 -0.078983
0.060793 0.112537 -0.024130
-0.039630 0.123534 0.090642
-0.049849 -0.074358 0.129318
-0.001019 0.128725 -0.063269
0.075175 0.104122 -0.018916
0.042992 0.003699 0.005341
-0.103120 -0.056866 0.001047
-0.051086 0.000029 0.129469
0.083261 0.070961 0.129403
0.108639 0.067697 0.016039
0.063955 0.051486 0.129468
-0.047410 -0.096413 0.005452
0.130508 0.022730 -0.103737
0.102594 -0.085307 -0.056166
-0.071115 -0.108434 -0.122697
-0.119969 -0.053447 -0.059093
-0.117864 -0.062189 -0.109825
-0.131645 0.005518 -0.022822
-0.130422 0.027274 0.126380
-0.086756 0.098926 0.097837
-0.047190 0.088607 -0.122863
0.116611 0.055401 -0.072461
-0.047526 0.016004 0.129469
-0.090591 -0.098810 0.118036
-0.130839 0.023155 0.092705
0.108172 -0.075880 0.129127
-0.015659 -0.019816 0.129381
0.009637 -0.133380 -0.054067
-0.045413 -0.072861 0.005320
-0.084306 -0.050023 0.129469
-0.067081 -0.017532 -0.122849
-0.081951 0.061298 0.129276
-0.128360 0.037382 -0.122626
-0.101167 0.081985 0.033319
-0.065585 -0.114492 0.016204
-0.133495 0.006754 -0.090761
-0.009144 0.023760 0.001018
0.045868 -0.124780 -0.070400
0.086980 -0.025368 -0.122810
0.074519 0.043504 0.005369
0.032120 -0.130266 0.071897
-0.043327 -0.093576 -0.122863
0.031278 -0.126461 -0.122863
-0.062201 -0.118645 0.080490
0.118875 0.026451 0.005429
-0.042683 0.119020 0.009362
0.015969 -0.033862 -0.122863
0.123652 -0.051195 -0.087672
0.113905 0.056486 -0.013241
-0.055075 0.024845 -0.122801
0.130456 0.013601 -0.043114
-0.024324 -0.132784 0.109725
0.130904 -0.013070 0.028544
0.100156 -0.088838 0.080482
-0.055919 -0.027761 0.129469
-0.118972 -0.059438 0.111017
-0.103371 -0.086653 -0.121567
0.025693 0.058048 0.129469
-0.079533 0.059415 -0.122858
0.059316 -0.116732 0.129279
-0.088785 -0.073235 0.005368
-0.131387 0.006574 0.020898
0.108965 0.069837 0.050153
-0.036374 0.123199 -0.036552
0.054117 -0.091260 0.129323
0.048729 -0.031984 0.005278
-0.050071 0.116358 0.029644
-0.109387 0.066466 -0.122851
0.090492 0.093815 0.113323
0.012619 -0.001255 -0.122863
0.016757 0.051246 0.005503
0.013004 -0.133950 0.086993
-0.124733 -0.033209 0.005429
-0.031342 0.125882 -0.083915
-0.109849 0.074916 -0.104492
-0.118908 0.055856 -0.044596
0.030259 0.123281 -0.001713
0.040682 -0.032772 0.129453
0.065679 -0.117556 -0.122413
0.048801 0.113956 0.129402
0.076341 0.104448 -0.122769
0.053169 0.038690 0.001024
-0.098701 0.085508 -0.048989
0.090426 0.093347 0.095665
0.010390 -0.095266 0.001132
0.116470 -0.067473 0.109963
0.046743 -0.043886 -0.122863
0.091166 0.092157 -0.080090
0.049660 0.098051 0.000748
0.014803 -0.066136 -0.122863
-0.045255 0.086749 0.001005
-0.040573 -0.126461 0.025466
0.007709 0.129726 -0.103433
-0.090248 0.017491 0.005407
-0.019731 -0.114555 0.000805
0.084804 -0.078590 0.001212
-0.073707 -0.060370 -0.122863
-0.041804 0.104932 -0.122863
0.085547 -0.102181 0.028829
0.069280 -0.113461 -0.057482
-0.060488 -0.118790 -0.050682
0.085725 -0.022594 0.000962
0.132850 0.009870 0.115371
0.128694 0.017730 -0.001551
-0.099468 -0.088808 -0.051168
0.062219 0.076979 0.005483
0.039531 -0.129056 -0.105965
-0.093377 -0.037939 0.005383
0.073673 -0.038593 0.129321
0.123228 0.037400 -0.029032
-0.008732 -0.132720 0.007550
0.110406 -0.004043 0.129148
0.035790 -0.087813 0.001229
0.043592 0.082886 0.129469
0.120772 0.044581 -0.051365
0.001339 -0.124220 0.129371
-0.127658 0.036398 0.111268
-0.008048 -0.105622 0.129292
-0.024767 0.128241 -0.122282
-0.017960 0.089232 0.005568
-0.057792 -0.106452 0.129232
0.118714 0.045109 0.008951
0.054348 0.108900 0.005643
-0.113779 -0.063693 -0.018661
-0.132503 -0.019591 -0.088551
0.002987 0.127696 0.011056
0.119184 -0.059377 0.062395
0.027552 0.037016 -0.122863
-0.109227 -0.076396 0.060611
0.128025 -0.038427 -0.104788
-0.047590 -0.125670 -0.081446
-0.101384 0.056827 0.129293
-0.128639 -0.037916 0.107530
-0.052493 0.114786 0.129340
-0.032414 0.126411 0.119194
0.049931 0.119209 -0.065375
0.031691 0.024841 0.001016
-0.099450 0.073431 0.005458
-0.063551 -0.039168 0.129469
0.094576 0.046075 0.001022
0.055002 0.115501 -0.122570
-0.111927 -0.026711 -0.122820
0.100004 -0.089948 -0.099073
0.082666 0.050726 -0.122849
-0.071162 -0.114809 0.114852
0.041230 0.053794 0.000982
-0.025330 0.014414 0.001019
0.101337 -0.084979 -0.016289
-0.038616 -0.111911 -0.122863
-0.124213 -0.043558 0.057931
0.042626 0.086225 -0.122843
0.074475 0.104210 0.021836
0.101064 -0.041885 0.129197
0.066306 -0.116670 0.112930
0.006339 -0.075671 0.129330
0.132258 0.009516 0.092450
0.102698 0.081610 -0.119839
0.010881 -0.133111 0.048771
-0.003262 0.109669 -0.122863
0.078048 0.103790 -0.085827
-0.037181 -0.115160 0.005602
-0.010857 0.031720 0.129469
0.076819 0.065709 0.005419
-0.106488 -0.003665 0.005426
0.046050 -0.124916 0.081991
0.080355 0.000610 0.129340
-0.109938 -0.071736 0.020730
-0.041697 0.076580 0.129455
-0.059802 0.101792 0.005408
0.122872 -0.045819 0.019243
0.043884 -0.115132 -0.122861
-0.028247 -0.082929 0.001150
0.107120 0.047299 0.129282
-0.000254 -0.105002 -0.122863
0.131491 0.011305 -0.067936
0.013669 -0.123105 0.005523
-0.130113 0.020590 -0.027040
-0.069384 0.108525 0.059189
0.076379 -0.109365 -0.035627
-0.110738 0.036244 -0.122773
0.109884 -0.044676 -0.122744
0.040952 -0.125454 -0.027769
0.021163 0.128148 0.102570
0.035452 -0.130295 0.110632
-0.037306 0.056294 0.005521
0.125823 -0.043185 0.083561
0.031259 -0.095099 -0.122863
0.069395 -0.096894 -0.122825
-0.072466 0.019597 0.129386
0.126894 -0.042768 0.113413
-0.001120 0.128244 -0.038248
-0.108651 -0.039897 0.005408
-0.107224 -0.080020 -0.082256
0.075900 -0.105864 0.005231
0.020472 -0.029861 0.000997
0.133275 -0.016404 -0.107496
-0.045810 -0.046799 0.129403
0.066885 0.109920 -0.042036
0.075544 -0.111939 -0.101249
-0.100019 0.031033 0.005433
0.035011 0.108558 0.000814
0.004004 0.117049 0.129469
-0.123941 0.045426 0.073464
-0.012645 -0.042112 0.005331
-0.010042 0.104088 0.000938
0.100815 -0.086733 0.048300
-0.064535 0.033653 0.005383
-0.030141 -0.002867 -0.122863
0.040484 -0.101524 0.129371
0.003001 0.099956 0.005653
0.113405 0.061127 -0.056729
-0.059435 -0.089379 0.129301
-0.126133 -0.036581 0.023707
-0.092049 0.093239 0.075505
0.130724 0.003973 0.027938
0.029172 0.003073 0.000996
-0.039676 -0.126240 -0.004973
-0.036505 0.123357 0.048145
-0.009656 0.128438 0.060098
-0.068499 0.107499 -0.014201
-0.027471 -0.132033 -0.101978
-0.090938 -0.005471 0.129343
-0.132791 -0.002308 0.065832
0.059612 -0.043965 0.005246
0.111588 -0.074790 -0.068397
0.086194 0.092655 0.129427
0.088185 -0.101543 0.074707
-0.020260 0.128785 -0.106248
-0.131991 -0.002566 0.034815
0.031840 0.123537 -0.020064
0.112068 0.062544 -0.122844
-0.002728 0.034285 -0.122853
0.036460 0.123646 -0.070429
-0.124815 0.047776 0.121892
-0.120313 0.051299 -0.009322
-0.036050 0.124319 0.067657
0.122158 0.045618 0.107374
-0.086182 0.086299 0.129256
-0.099072 -0.089942 0.066179
-0.000302 -0.041593 0.129244
0.100638 -0.006768 0.005280
-0.050563 0.117878 -0.069938
0.004284 -0.133174 -0.035415
-0.129201 -0.028855 -0.019206
0.125791 0.031493 0.031670
0.131699 0.000097 0.053949
-0.029492 -0.001640 0.005444
-0.010390 -0.132898 0.023992
0.062767 0.013904 -0.122863
0.074115 -0.110813 0.052861
-0.129108 0.029191 -0.062961
0.089177 -0.101889 -0.102392
-0.050335 -0.074455 -0.122863
0.098342 0.085747 0.083652
-0.023040 -0.025131 -0.122863
-0.033780 -0.129967 0.084564
0.094458 0.088397 -0.056162
0.034466 0.123221 0.038489
0.053017 -0.105761 0.001117
-0.040571 0.019484 -0.122836
0.043557 -0.043910 0.001059
0.026947 -0.131882 -0.089011
-0.118783 0.059136 -0.102143
0.045114 -0.074484 0.005214
0.018223 0.126302 0.015760
-0.126463 0.041261 -0.097599
-0.080761 -0.089610 0.000971
0.044294 -0.124491 0.049675
-0.130796 -0.025202 -0.055814
0.132901 0.004464 -0.122735
0.106828 0.072781 -0.027950
0.124306 -0.046865 -0.061430
-0.072728 -0.098224 0.129322
0.131548 -0.009615 -0.041897
0.004228 -0.071265 0.001182
-0.094820 0.035836 -0.122750
-0.040468 -0.109847 0.129149
-0.055055 -0.027928 -0.122863
-0.090904 -0.000979 -0.122799
0.115736 0.056613 0.070103
-0.088917 0.094658 0.040186
-0.073690 -0.045919 0.005407
-0.059767 0.113885 0.083622
-0.007353 0.061249 0.129469
-0.050431 0.116813 -0.039896
-0.013320 0.013376 -0.122863
-0.133561 0.001918 0.090538
0.085241 0.021258 0.129342
0.082487 0.099688 0.067727
0.130062 0.006280 -0.008175
-0.087860 -0.088255 -0.122863
0.036357 0.123125 -0.038451
-0.116062 0.061680 0.058549
-0.039124 -0.127503 -0.041700
0.095519 -0.042700 0.001052
0.049033 0.003737 -0.122863
0.125076 -0.040080 -0.013211
0.048468 0.049900 0.129387
0.057609 -0.120082 -0.090172
-0.075342 -0.110927 -0.083729
-0.040079 -0.127519 0.054738
0.107881 0.069120 -0.006753
-0.058321 -0.121066 -0.103869
-0.127429 -0.019475 0.000983
0.056766 -0.118127 -0.027380
-0.112253 0.068287 -0.040873
-0.119606 -0.055585 -0.075591
0.071124 -0.090365 0.005159
0.069196 0.110307 0.119496
-0.052273 0.039943 -0.122764
-0.056047 -0.110899 -0.122857
-0.041317 -0.061408 0.129331
-0.061383 0.001945 0.005482
-0.007289 0.129618 -0.118471
-0.033650 0.124179 0.034934
0.127974 -0.033815 -0.049338
0.000714 0.013557 0.001012
-0.108493 0.021548 0.129227
-0.092783 -0.073878 0.129469
0.130578 -0.028253 0.118927
0.064443 -0.073389 -0.122841
-0.113141 -0.000133 -0.122757
-0.114247 0.067565 0.103437
0.006794 0.128517 0.069434
0.013205 0.036956 0.001003
0.074943 0.106528 -0.106848
-0.131589 -0.025866 -0.102311
0.096773 -0.083255 0.001232
-0.051150 -0.122572 0.015377
-0.053677 -0.121348 -0.014515
-0.017342 0.127318 0.033252
0.023125 -0.131226 0.032588
-0.047508 0.121141 -0.119038
-0.071895 0.044686 0.000994
0.016947 -0.029129 0.129323
0.027046 0.005176 0.129331
-0.024539 0.073339 0.129469
0.100465 -0.059444 -0.122738
-0.027299 -0.085157 0.129187
-0.129128 0.024396 0.028930
-0.060530 -0.038915 0.005400
0.113739 -0.071941 -0.122713
0.113000 -0.069884 0.033876
-0.091267 0.094897 -0.089626
-0.115345 -0.041109 -0.122832
-0.078769 -0.107061 -0.016739
-0.085659 0.081224 0.005434
0.008221 -0.021261 -0.122863
0.103487 0.024513 -0.122848
0.046060 -0.058595 -0.122863
-0.059134 -0.013372 0.129469
0.093369 -0.080465 -0.122765
-0.106843 0.076080 0.055020
-0.128164 0.031951 0.077610
0.074080 0.004696 0.000987
-0.102201 -0.084155 0.022268
-0.082163 0.101332 0.058295
-0.070078 0.057957 0.005400
-0.095275 0.071757 0.129386
0.044533 0.068028 0.000907
-0.094830 0.004285 0.000974
-0.063976 -0.115915 0.031017
0.128040 0.028018 -0.042957
0.129677 0.003997 0.005505
0.048075 -0.125698 0.126796
-0.066056 0.112206 0.116282
0.079346 -0.109035 0.103266
-0.080244 0.101583 0.011206
-0.060053 -0.053303 0.129437
0.090451 -0.098361 0.044406
-0.096031 0.043306 0.129239
0.009588 -0.057316 0.005282
-0.077844 -0.108237 -0.043822
0.099861 -0.087854 -0.042168
-0.063028 -0.015715 0.000999
-0.106622 -0.070873 0.001050
0.112306 0.055059 0.001026
0.029815 -0.059808 0.005255
0.082074 0.100131 -0.060779
-0.124061 -0.046637 0.091720
0.046081 0.121449 -0.098294
0.132212 -0.003734 0.067774
-0.015240 -0.056189 0.005312
-0.109525 -0.069427 -0.122863
-0.038408 0.009549 0.005496
0.090571 0.090852 -0.017014
0.005953 0.114705 0.000914
-0.061231 -0.107304 0.000779
-0.040697 0.057750 0.129469
0.016804 0.126473 -0.018155
-0.109320 0.074377 -0.077798
-0.029896 -0.022164 0.005385
-0.123481 0.043147 0.038545
0.046959 -0.076261 -0.122863
0.075287 0.007259 -0.122848
0.129475 0.024807 -0.076789
0.003665 -0.135041 -0.116558
-0.080857 0.037798 -0.122743
-0.012197 0.090556 -0.122863
0.123347 -0.016697 0.129079
-0.091533 -0.022551 0.000999
0.060997 0.027004 0.001011
-0.014958 0.045152 0.129469
-0.010981 0.003525 0.129448
0.060301 0.112264 -0.008472
0.111612 0.062782 0.035491
0.030937 -0.055027 0.129433
0.085802 0.098414 -0.114459
-0.121984 0.005139 0.005458
0.131353 -0.022872 -0.076727
0.071991 -0.010516 0.129357
-0.076581 -0.076353 0.001089
-0.032647 0.028306 0.005539
0.061026 -0.063981 0.005213
0.073305 0.037373 -0.122861
0.121888 0.043472 -0.067730
-0.127652 0.028813 0.011466
-0.077458 0.011121 0.005386
0.114534 -0.066125 -0.011783
0.068049 -0.115281 0.097462
-0.059861 -0.067826 0.001104
-0.131145 -0.015368 0.039961
0.037065 -0.123834 0.005373
0.049615 -0.028841 -0.122863
-0.006486 0.129469 0.127489
-0.103251 0.080824 -0.061131
-0.126987 0.038667 -0.084132
0.052547 -0.072832 0.129348
-0.021471 0.127219 -0.063400
-0.089208 -0.021737 0.129369
-0.122365 -0.045376 -0.024201
-0.127498 -0.037191 -0.061504
-0.006277 -0.042787 -0.122863
0.068584 0.108361 0.050169
0.073420 -0.057599 0.005209
-0.082699 -0.104681 0.077031
0.110346 0.010165 0.005363
-0.028109 -0.130340 0.048896
0.023498 -0.093546 0.001190
0.115750 -0.066853 0.073723
-0.131149 0.017511 -0.122699
0.014849 -0.134320 0.105131
0.053637 0.006157 0.129467
-0.113467 -0.071683 0.112487
0.099176 -0.087072 0.013421
0.081579 -0.013012 -0.122829
-0.098058 -0.092190 0.100351
0.085960 0.009355 0.005301
0.058066 -0.119156 -0.071130
-0.125422 -0.045821 -0.111838
-0.004090 0.074893 0.129469
0.106471 -0.055846 0.001110
-0.114180 -0.061775 0.012250
-0.076175 0.107157 -0.109644
0.127098 -0.032905 -0.000728
-0.091062 0.091958 -0.019237
-0.012730 -0.091539 0.005307
0.127462 -0.037713 0.071057
0.044059 -0.123405 0.017786
0.029075 0.125028 -0.050271
-0.026795 0.127376 0.098934
0.079443 0.103818 0.113937
0.119416 0.052233 -0.108683
-0.097400 -0.090101 -0.022450
-0.032777 0.073755 -0.122863
0.076723 0.103568 0.039894
0.057693 -0.119813 0.090323
-0.095057 0.091307 0.105446
-0.016357 0.126796 -0.037050
-0.120418 0.054729 0.082201
0.075933 0.059935 0.129423
0.116991 0.057286 0.110875
-0.101355 0.083584 0.086121
0.084561 -0.104838 -0.082235
0.028943 -0.129982 -0.019990
-0.086262 -0.100769 0.031017
0.100340 0.081672 0.046224
0.127007 0.033509 0.089184
-0.113345 -0.070693 0.097562
0.100347 -0.028029 0.000986
0.086158 0.096847 0.083713
-0.133519 -0.002608 -0.099998
0.071779 -0.051608 0.129313
-0.124855 -0.041973 -0.049298
-0.017848 -0.132330 -0.040592
0.017857 0.085504 0.000815
-0.061909 0.076039 0.001031
-0.098694 0.084062 0.013028
0.121442 -0.050684 0.031282
0.011654 0.083537 -0.122863
0.062118 0.111334 0.027942
-0.097088 -0.089745 -0.004745
-0.063347 -0.073816 -0.122863
-0.121120 -0.053589 -0.091717
-0.014299 -0.129086 -0.122863
-0.109905 -0.076966 -0.100791
-0.066187 0.052299 0.129377
0.014180 -0.053154 -0.122863
-0.116798 -0.059575 0.055618
-0.118545 0.055848 -0.031282
0.103037 0.019917 0.129219
0.046267 0.120002 0.034206
-0.031220 0.124681 -0.024703
0.115405 -0.069176 -0.106066
-0.090003 -0.096542 0.006791
0.008512 0.060074 0.129469
-0.080972 -0.105677 0.049725
0.109782 0.069781 0.070837
0.033522 0.124797 -0.089809
0.019444 0.125453 -0.122863
0.022911 -0.132061 -0.059067
-0.014240 0.049527 0.000853
0.095798 0.087533 -0.069022
0.126683 -0.041502 -0.079797
-0.116842 0.023736 0.000979
0.036882 0.123162 0.057085
0.046746 0.118859 0.005814
0.014444 -0.132092 -0.122863
-0.055222 0.115208 -0.056274
0.121968 -0.002228 -0.122757
0.115860 -0.065891 -0.057551
0.009395 -0.132661 -0.021383
0.114152 0.061674 -0.083312
-0.030218 -0.055097 0.129309
0.062507 -0.086168 -0.122840
0.046327 0.049761 -0.122863
-0.054028 0.113687 0.007091
0.060719 0.113952 -0.069651
0.132199 0.016882 -0.120023
0.082704 -0.067527 0.005182
0.018106 -0.129841 0.129457
-0.083266 -0.105006 0.127131
-0.001163 -0.024317 0.000975
0.007952 -0.004250 0.129342
-0.079316 -0.031632 0.005443
-0.038362 -0.126524 0.009458
-0.130490 -0.029664 0.098082
0.004250 -0.135239 0.123818
-0.132370 0.019295 0.116739
-0.044450 -0.023099 0.129469
0.032721 0.073250 0.129469
-0.075388 -0.090306 -0.122863
-0.090246 0.057542 0.005429
0.007688 0.070555 0.000813
-0.106058 -0.083134 0.120078
-0.081235 0.101168 0.023969
0.057877 0.002617 0.000988
-0.131461 -0.001142 -0.010665
0.049282 0.062468 0.129421
-0.127172 -0.042144 0.120072
-0.003833 -0.014734 0.129352
-0.117335 -0.056432 0.031369
-0.133210 0.006840 -0.078193
0.122554 -0.054553 0.113983
0.036974 0.013436 0.001004
-0.134387 -0.002300 0.128515
0.131669 -0.015308 0.057835
0.095309 0.086032 -0.004166
-0.103596 -0.084309 -0.062123
0.072980 0.104709 0.010376
-0.102972 -0.043004 -0.122844
0.068749 0.024894 -0.122863
0.007353 0.117584 -0.122863
-0.088382 0.098459 0.127446
-0.085282 -0.048876 -0.122863
-0.003427 0.129132 0.104472
0.033133 -0.131153 0.122853
-0.068841 0.110093 -0.088035
0.052479 0.099969 0.129469
-0.064665 0.110381 -0.043923
0.053434 0.117630 0.075631
-0.110041 0.070307 0.014721
-0.119830 -0.052634 -0.045331
0.038047 -0.127846 0.061236
-0.096791 0.015846 -0.122744
0.068862 -0.035671 0.005249
-0.029224 -0.122698 0.000706
