-0.051678 -0.015935 0.069657
-0.055063 -0.045841 0.031021
0.008003 0.067902 -0.008626
-0.058004 -0.042691 -0.062750
0.062934 -0.033441 -0.025883
0.060170 0.004457 0.069537
-0.000746 0.015628 -0.066109
0.026060 -0.066949 0.037779
-0.062731 0.032567 -0.011913
-0.012393 0.068676 0.060313
0.002709 -0.015201 0.000529
0.061180 0.032384 -0.009079
-0.003729 -0.072578 -0.052026
-0.008892 -0.025123 0.069543
-0.066493 0.025262 0.029117
-0.063243 0.033125 -0.042713
0.027924 0.038747 -0.066092
0.004478 -0.017455 0.069583
0.069695 -0.012173 0.026390
0.056036 -0.045331 -0.052338
-0.010383 -0.070531 0.005018
0.041927 0.055526 0.047280
-0.066700 -0.023130 -0.018647
0.008371 0.022334 0.069667
-0.016251 0.067370 -0.046777
-0.004099 0.069032 0.015090
0.070189 0.008508 -0.062904
-0.047722 0.052957 0.069481
0.004252 -0.028994 -0.066113
0.059787 -0.040730 0.069404
-0.017225 -0.070641 0.058187
-0.035841 -0.063456 0.059228
-0.012279 -0.050585 -0.066113
-0.038325 -0.060970 -0.026435
-0.002918 0.057153 -0.066113
0.005112 -0.071116 0.013264
0.042873 -0.045161 0.002792
-0.020365 0.025525 0.002960
0.031910 0.061507 -0.033690
-0.056082 -0.000116 -0.066092
0.029381 0.032428 0.000478
-0.038959 -0.032314 0.002871
-0.069989 -0.011569 -0.035046
-0.068257 -0.023240 0.066329
-0.040561 0.040815 -0.066113
0.034139 -0.012014 -0.066110
0.065515 0.019775 0.008223
-0.044702 0.053612 0.007821
-0.039565 0.057401 -0.011396
-0.069822 -0.009243 0.017923
-0.001002 -0.071283 0.069652
0.018316 -0.068308 -0.020067
0.052251 -0.048928 0.021599
0.070641 -0.006869 0.038924
0.020596 0.051847 0.069667
0.070040 -0.004857 -0.010818
0.029976 -0.062042 -0.066083
0.025671 -0.051862 0.069574
-0.003101 0.069486 0.033568
-0.069774 -0.010791 0.027013
0.040472 -0.007326 0.002852
-0.032050 -0.024177 -0.066113
-0.054215 -0.046854 -0.029676
0.054259 0.044618 -0.060276
-0.047155 0.001079 0.000541
-0.070748 0.014975 0.065761
0.032393 0.001539 0.069655
-0.030080 0.024025 0.069636
0.016269 0.041751 0.000440
0.017520 0.067861 -0.065297
0.062826 0.031950 0.055993
-0.034055 -0.062649 0.009839
0.033352 0.020185 -0.066113
-0.070933 0.004252 -0.016986
0.037763 -0.014446 0.000521
-0.018955 0.043171 0.069638
0.049856 0.047800 0.020100
0.053879 -0.008921 0.069532
0.037829 -0.040975 -0.066082
0.068618 -0.022517 -0.057323
-0.046674 -0.048276 0.069563
-0.009311 -0.045708 0.002823
0.027919 0.001227 0.002877
-0.071077 0.006560 -0.028434
-0.027422 -0.067183 -0.053449
0.057718 -0.041225 -0.011793
0.045990 0.051274 -0.010451
-0.012867 -0.070555 -0.019480
-0.064399 -0.032667 -0.052716
0.006130 -0.000554 -0.066113
0.065297 0.025382 0.039042
-0.034761 0.060913 -0.023810
-0.025852 -0.009135 -0.066113
0.043239 -0.058379 0.067531
-0.037652 0.059854 0.047442
-0.025715 -0.067216 0.030414
-0.058762 0.019175 0.069532
-0.051748 0.048813 -0.036913
0.067694 0.015362 -0.037585
0.012745 0.032914 -0.066089
0.028831 0.062146 -0.007918
-0.058269 -0.013802 -0.066105
0.033701 0.026983 0.069635
-0.016976 0.001398 0.069667
-0.005974 0.069108 -0.025900
0.008510 -0.071867 0.057125
0.016374 0.067495 0.055914
0.002172 0.017503 0.000530
0.066205 0.022654 -0.043851
-0.018513 -0.052204 0.069550
0.023048 0.064978 0.018900
-0.020998 -0.000109 0.000539
-0.060201 0.038395 0.049907
-0.008519 0.052119 0.000530
0.039604 -0.060136 -0.032952
0.026992 -0.059166 0.000675
0.068262 0.008819 0.013086
0.022807 -0.031893 0.069615
0.067405 -0.020654 -0.002165
-0.057910 0.039216 0.006471
0.047034 0.051062 0.069603
-0.030383 0.064000 -0.064395
-0.037945 -0.051469 -0.066113
0.061587 -0.007754 -0.066080
-0.033395 0.061651 0.024633
-0.053442 -0.047342 0.005705
-0.032543 -0.021716 0.069634
0.070431 -0.010527 -0.041470
-0.061663 -0.035499 0.008298
0.062502 -0.033258 0.013607
-0.071719 0.004538 0.045602
0.053466 0.044799 -0.035811
0.047117 0.032134 0.069655
-0.041888 -0.058695 -0.043506
-0.021619 0.028661 -0.066056
-0.070659 0.014022 -0.061069
0.019256 -0.034500 0.002820
0.009635 0.008750 0.069632
-0.006494 -0.071931 0.036369
0.062278 -0.035165 0.041680
0.017901 -0.022315 -0.066113
-0.068942 0.015093 0.004664
0.009501 -0.052901 0.069638
0.019456 -0.068961 -0.046683
0.044296 0.031759 0.000506
0.007374 -0.057761 -0.066113
0.069130 -0.020076 0.061623
0.003049 0.062219 0.069667
-0.062650 -0.036091 0.047059
-0.034646 0.061747 0.055658
0.010558 0.068717 -0.047182
-0.044570 0.024911 0.000546
-0.018832 -0.065452 0.003034
-0.013711 -0.013276 -0.066113
0.067806 0.011748 -0.016358
0.034038 0.060860 -0.057008
-0.069405 -0.014734 0.043097
-0.024093 0.061027 0.069568
0.006566 -0.057520 0.002855
-0.069413 0.014779 0.017877
0.045940 -0.055756 0.048591
-0.057109 -0.013509 0.002899
0.035989 -0.062124 0.018254
-0.055433 0.023700 -0.066026
-0.039427 0.003297 0.069660
-0.024610 0.063947 0.009533
0.030194 -0.066078 0.059860
0.069597 0.009718 0.057496
-0.039478 0.016204 -0.066070
0.004043 -0.071504 -0.013589
-0.049603 0.050380 0.029396
0.052685 0.046354 0.053141
-0.028126 0.048664 0.002910
0.000460 0.041624 0.069667
-0.014628 -0.029007 0.002857
-0.051115 -0.049850 -0.009335
-0.040597 0.058002 -0.048052
-0.022630 0.007527 -0.066105
0.069705 -0.012809 -0.027236
-0.030022 -0.048979 0.002939
-0.039685 -0.009081 0.069667
-0.020211 0.065883 0.034885
-0.059955 -0.034876 0.069665
0.007474 0.054901 -0.066113
0.043370 0.013994 0.002888
-0.044660 -0.057037 -0.062190
-0.020352 -0.032009 -0.066113
-0.012521 0.067192 -0.016089
0.046682 0.028934 -0.066113
-0.065128 -0.028564 0.013435
0.032218 0.062155 0.060667
0.060939 0.025131 -0.066092
0.044708 -0.055598 -0.014798
0.061773 -0.002249 0.000533
-0.041617 -0.058946 0.039277
0.023798 0.065348 0.041790
-0.063107 -0.033357 -0.014883
-0.008987 0.023293 0.069667
-0.002563 0.070005 -0.057538
0.055531 -0.026111 -0.066074
0.050371 -0.026868 0.000537
0.061254 0.032713 0.019072
-0.022554 -0.018997 0.002881
-0.068697 0.020287 -0.032800
0.034958 0.059774 0.027443
-0.056502 0.034053 0.069543
0.036267 -0.022226 0.069594
-0.054596 -0.046863 0.054146
0.038689 -0.061305 -0.048311
-0.047057 -0.030499 -0.066113
0.066079 -0.028030 -0.048482
-0.011393 -0.071275 -0.039792
0.052841 -0.048660 -0.029461
-0.071988 -0.000765 -0.047842
-0.070095 -0.004220 0.069545
0.040626 0.004464 -0.066110
-0.052749 0.045669 -0.066103
0.019932 -0.011372 0.002861
-0.026214 -0.032379 0.069567
-0.044574 -0.055624 0.016578
-0.014072 -0.071200 -0.066113
-0.022246 0.047811 -0.066113
0.011545 0.068205 -0.029660
0.022080 -0.067880 -0.033660
0.044826 -0.053103 -0.066041
0.023284 -0.039546 -0.066109
0.039086 0.056547 0.005670
0.062702 0.030612 -0.027621
0.010917 -0.070332 0.030633
-0.031278 0.042647 0.069589
0.019005 0.056854 0.003058
-0.014272 -0.017850 0.002877
-0.046432 -0.007013 -0.066105
-0.005476 0.038834 -0.066098
-0.001478 0.031656 0.000457
-0.065368 -0.029690 -0.034584
-0.069761 -0.003613 0.000542
0.014026 -0.070880 -0.064149
-0.018841 -0.069816 0.041312
-0.026782 -0.066219 -0.008324
0.038284 -0.039690 0.069555
0.054016 -0.024733 0.069498
-0.002182 0.069954 0.052894
-0.068489 -0.013348 -0.003914
-0.069691 -0.015772 -0.054875
-0.053467 0.045647 -0.010608
0.010665 0.002667 0.000540
0.047914 0.013814 0.069619
-0.025842 -0.068229 0.069032
0.004050 -0.032486 0.000603
-0.040354 -0.059098 -0.009335
0.069251 -0.011582 0.010309
-0.061907 0.036118 -0.056295
0.037225 -0.061119 -0.007281
-0.012566 -0.070508 0.018949
0.032713 0.038583 0.069667
-0.050184 0.050652 0.049404
0.018452 -0.069608 0.069564
0.070993 -0.008726 0.069511
0.054262 0.008349 -0.066084
-0.068854 0.021294 0.050095
0.056724 0.040304 0.036952
0.011333 -0.065145 0.002885
0.065572 0.021710 0.069589
-0.009205 0.000716 -0.066113
-0.065281 -0.029625 0.030848
-0.020281 0.065996 -0.035118
0.044151 0.053058 -0.065964
-0.006822 -0.042284 0.069586
-0.072241 -0.002492 -0.063230
0.016972 0.019615 0.002938
0.020837 -0.013349 0.069655
0.071415 -0.006266 -0.057534
0.056430 0.010191 0.000546
0.058297 -0.040286 0.017327
-0.059761 0.038202 -0.026673
-0.039401 -0.016789 0.000574
-0.042429 0.036864 0.002920
0.065766 -0.026980 -0.017508
0.055579 -0.038798 -0.066066
0.005402 -0.031145 0.069622
0.068900 -0.019858 0.049009
0.021494 -0.067219 0.014102
-0.064657 0.028349 0.014251
0.053184 0.043804 0.000078
-0.043599 0.033994 0.069555
0.011226 0.067721 0.007146
0.043601 0.054467 -0.048886
-0.034946 0.000790 0.002953
-0.007362 0.004482 0.000543
0.034321 -0.031271 0.000570
-0.059123 0.039074 0.033868
-0.051064 0.046230 0.002945
-0.007236 -0.061326 0.000484
-0.002800 0.068883 -0.003716
0.071298 -0.004683 0.056739
0.011471 0.068280 0.032366
0.069688 0.004539 0.025156
-0.014689 0.015707 0.002972
0.036146 0.049238 0.069667
-0.004358 0.009854 0.069667
-0.048119 0.051500 -0.023133
-0.053973 -0.047442 -0.045487
-0.053122 0.047758 -0.052689
-0.010263 -0.011138 0.069609
0.068773 0.010419 0.038646
0.019750 0.015736 -0.066113
-0.025574 0.063790 -0.008167
0.016975 0.024948 0.069667
-0.048770 -0.053746 0.059473
0.065630 -0.027656 0.026841
-0.032443 0.056096 0.000538
-0.056115 0.010983 0.002920
-0.024551 0.016771 0.069667
-0.021322 -0.039483 0.000621
0.058113 0.038693 -0.045237
-0.014443 -0.061530 0.069595
-0.069703 0.017442 -0.046389
-0.003417 -0.072640 0.051822
0.017969 0.066903 -0.019982
0.041086 -0.058881 0.031913
-0.067632 0.021597 -0.007616
-0.070650 0.010076 0.032027
0.032066 -0.028170 -0.066103
-0.002743 0.040791 0.000485
-0.054488 -0.027190 0.000576
-0.054415 0.005812 0.069581
-0.022969 -0.068442 -0.034014
-0.071162 0.000270 0.015422
0.022119 -0.066918 -0.006292
0.008157 -0.018575 -0.066113
-0.034132 0.061668 -0.037696
0.010679 -0.045458 0.002807
0.056051 0.040032 0.007337
0.054265 0.043020 -0.018598
0.034547 0.060282 0.036866
0.066075 0.019532 0.022706
-0.053903 0.045353 0.020149
-0.025375 0.065135 0.048938
-0.013383 0.036185 0.069667
-0.026515 -0.060017 -0.066113
-0.017756 0.065892 0.018224
0.041338 -0.057916 0.009952
-0.003094 0.069656 -0.041234
-0.039270 0.058385 0.035751
0.019463 0.047575 -0.066113
0.042763 -0.015404 -0.066092
-0.005961 -0.038086 -0.066113
0.069157 0.010755 -0.048483
0.069794 0.005126 -0.028706
0.025059 0.065004 -0.046834
-0.058474 0.029777 0.000519
-0.041865 0.057394 -0.060128
-0.032437 0.050378 -0.066113
0.059124 -0.030823 0.000546
0.058884 0.027353 0.002902
-0.042271 0.055906 0.022160
0.061861 -0.036434 -0.041753
-0.039182 0.013040 0.000501
0.004847 0.056518 0.000509
0.036877 0.058671 -0.020808
0.055585 -0.045472 0.037232
0.002374 -0.072142 -0.037088
-0.041833 -0.043418 0.002941
0.056373 0.041158 0.069652
0.061850 0.033764 -0.055903
0.034717 0.042606 0.000423
-0.027862 -0.066697 -0.043060
-0.060554 -0.027624 -0.066113
-0.024036 0.037859 0.002898
-0.007814 0.056714 0.069653
0.029645 -0.042868 0.002797
-0.067019 0.026195 -0.059305
0.051050 -0.051418 -0.043376
0.017058 -0.041537 0.069623
0.065569 -0.028305 0.036761
0.063982 -0.032900 -0.058879
0.000956 0.068976 -0.018178
0.057715 -0.043092 0.051192
-0.002633 -0.071832 0.023633
-0.013077 -0.070181 -0.005450
0.064945 -0.030839 0.055346
-0.069781 -0.010472 -0.021614
-0.072079 -0.001335 0.056754
0.016518 -0.048241 -0.066113
0.066455 0.015711 -0.004319
0.022333 -0.007969 -0.066113
-0.012976 0.066536 0.003802
0.002450 -0.070072 0.000544
0.027081 0.063604 0.069374
0.030091 0.014963 0.069635
-0.011348 0.049251 -0.066113
0.047714 -0.054750 -0.055547
0.051817 -0.051054 0.061134
-0.061640 -0.036289 0.020309
0.007272 -0.004898 0.069580
0.033408 0.053081 -0.066113
0.030896 0.019956 0.002919
-0.011817 0.068225 0.043842
0.055637 -0.043363 0.003137
0.017315 0.005283 -0.066113
-0.015427 0.041821 0.002935
-0.019399 -0.039596 0.069514
0.022424 0.009013 0.069610
0.010672 0.068604 0.044242
0.044257 0.017115 -0.066113
0.067739 -0.020747 0.017315
-0.071575 -0.003098 0.034033
-0.019954 -0.019408 0.069604
0.051665 -0.049069 -0.003740
-0.001864 -0.058716 0.069647
-0.069259 0.018328 0.039420
0.006955 -0.071807 0.044964
0.031349 -0.064862 -0.025521
-0.028389 0.064700 -0.053935
0.001282 -0.072712 -0.063577
0.058220 0.033466 -0.066101
0.066637 -0.026148 -0.035391
0.035326 -0.054282 0.000670
-0.058892 0.008625 -0.066067
-0.029424 -0.053934 0.069497
0.065943 -0.027761 0.069441
0.028234 0.006197 -0.066113
-0.033879 0.011332 0.069664
-0.001623 -0.071935 -0.025262
-0.064573 0.030902 0.067793
0.019143 -0.024102 0.002839
-0.057927 -0.041152 -0.001749
0.053258 -0.014803 0.000520
-0.047927 -0.032351 0.069637
0.045806 0.003837 0.069609
-0.006759 -0.006102 0.000532
0.036987 0.003846 0.002875
-0.015450 0.017286 -0.066096
0.000602 -0.047219 0.000650
0.042150 0.055021 -0.031223
0.046530 -0.054782 -0.031043
0.026557 -0.018341 0.000521
0.040775 -0.059963 0.058982
-0.023425 0.064861 -0.024154
0.039622 -0.011009 0.069603
0.024531 0.065674 -0.060411
0.046338 -0.033137 0.069533
-0.031853 -0.037139 0.000608
0.051440 0.046901 0.031571
-0.001853 -0.010410 -0.066113
0.069380 -0.008170 -0.000474
-0.029968 -0.064989 0.020275
-0.015890 0.056631 0.002902
-0.051867 0.033569 -0.066079
-0.050549 -0.051549 0.042884
-0.025938 0.014669 0.000504
-0.064136 0.030548 -0.025643
-0.060999 -0.038300 0.038399
-0.046505 -0.043706 -0.066113
-0.035074 -0.040043 -0.066113
-0.068105 -0.021667 0.051872
0.023033 0.065360 0.032181
-0.067997 -0.015307 0.006444
-0.070006 0.010862 -0.008422
0.035890 -0.062314 -0.019260
-0.038419 0.001819 -0.066101
0.035072 0.029181 -0.066113
0.047548 0.023310 0.002905
0.009911 0.069060 -0.059092
-0.049862 -0.034482 0.000587
0.028969 -0.048899 -0.066095
0.028090 0.062362 0.004856
0.007687 -0.071867 -0.048856
0.038712 0.042349 -0.066108
0.037536 -0.061894 0.042916
-0.038797 -0.031510 0.069612
-0.067691 -0.020533 0.032940
0.041492 0.056298 0.058898
0.018329 0.067207 0.067238
-0.034370 0.030730 0.002904
-0.035529 0.059732 0.008938
0.010042 0.035796 0.069667
0.043971 0.053390 0.036181
0.028275 0.049773 0.003021
-0.016964 0.037538 -0.066094
-0.022105 -0.018262 -0.066113
0.007037 0.069613 0.061054
-0.037997 -0.055070 0.003026
0.009861 0.030072 0.000463
-0.032370 -0.063283 -0.001050
-0.046474 -0.054492 -0.025545
-0.037508 -0.062377 -0.065557
0.052221 0.046579 -0.051420
-0.040116 -0.060811 0.069480
-0.057197 -0.005237 0.000540
0.056384 0.040090 0.019981
-0.028115 -0.009316 0.002910
0.043995 -0.037207 0.002796
0.023399 -0.068048 0.051037
0.022945 -0.068595 -0.060129
0.004358 0.069146 0.022592
-0.038825 0.059812 0.068335
0.006309 0.045265 0.003032
0.067090 0.019077 0.048210
-0.047909 -0.054357 -0.052787
-0.051299 0.020499 0.000544
-0.032331 0.033150 -0.066073
-0.053595 0.047404 0.061668
-0.056032 -0.024676 0.069664
-0.006025 -0.035539 0.000626
0.071277 0.004111 0.069146
-0.064078 -0.033787 0.057576
-0.039905 -0.016044 -0.066113
-0.048545 -0.011359 0.002921
0.052501 -0.002812 0.002850
0.019336 -0.051120 0.000671
0.070425 -0.014422 -0.065067
0.007160 -0.039539 -0.066113
-0.033945 -0.063855 0.043499
-0.064869 -0.030246 -0.023533
-0.070520 0.004382 0.008058
0.024902 0.011091 0.000548
0.061502 -0.018811 0.069468
0.032174 0.061781 0.047503
-0.003037 -0.021060 -0.066113
-0.049753 0.012359 -0.066068
-0.006127 0.019256 0.002971
-0.060596 -0.038755 -0.037606
-0.063964 -0.021167 0.000561
-0.064551 0.004801 0.000541
0.066510 0.019146 -0.029094
-0.065507 0.019352 -0.066025
0.014077 -0.069205 0.020132
-0.049591 -0.004724 0.069623
0.058790 0.032248 0.069623
0.021211 0.066185 -0.034045
0.002039 -0.004508 0.000533
0.071039 0.002819 -0.051765
-0.020085 0.028083 0.069667
0.027424 -0.023905 0.069616
-0.040674 0.026837 -0.066040
0.056471 0.019186 0.069581
0.004748 0.041967 -0.066113
-0.022664 0.066186 0.060321
-0.014188 0.014184 0.069667
0.006072 0.051985 0.069667
0.028238 -0.062098 0.069549
-0.020469 -0.052295 0.002926
0.050195 -0.007831 -0.066072
-0.029320 -0.011630 0.069667
0.053718 0.043338 -0.007394
0.010009 0.013189 -0.066113
0.067967 -0.019533 -0.012543
-0.070562 -0.012865 0.063414
-0.002220 -0.047348 -0.066113
-0.061426 0.018642 0.000531
0.069178 0.012811 0.065885
0.031263 -0.065530 -0.054180
0.066580 -0.026818 -0.066037
-0.031198 0.063024 0.040603
-0.006612 -0.066483 -0.066113
0.069012 0.004242 0.003695
0.030807 -0.008541 0.000528
-0.059771 0.039970 0.065096
-0.071501 0.006066 -0.040051
0.023358 0.034438 0.069667
0.056942 -0.043126 -0.023207
0.018517 -0.058450 -0.066105
-0.065214 0.029079 0.055852
-0.072210 0.004803 -0.058098
-0.017091 -0.059881 -0.066113
0.070879 -0.003647 -0.033838
0.008529 -0.070817 -0.024732
0.043141 0.045915 0.000415
-0.001070 0.061663 0.002954
0.025597 0.026976 -0.066113
0.037748 0.058008 0.017843
0.070646 -0.003066 -0.024104
0.019415 -0.068272 0.030076
0.068039 0.017884 -0.064272
0.061858 -0.013033 0.000522
-0.031529 -0.020666 0.002886
-0.011584 -0.071006 -0.029369
0.010464 -0.069706 -0.006194
-0.056808 -0.043109 -0.013650
-0.020087 -0.068802 0.012385
-0.044127 0.054958 -0.034326
-0.047141 0.042850 0.069591
-0.047730 0.025528 0.069567
0.058863 0.037264 -0.035117
-0.005228 -0.027025 0.000588
-0.035432 -0.046091 0.069537
0.070837 0.001921 0.043671
-0.031571 -0.064747 -0.033871
0.059040 0.037507 0.046059
-0.071295 0.002387 0.025941
0.050680 0.046722 0.009770
0.061747 -0.035467 0.031499
-0.045771 -0.050762 0.000401
0.042425 0.054360 0.025673
-0.066110 -0.024336 -0.009816
0.058627 -0.041256 -0.035159
0.015462 0.009254 0.000546
0.026878 0.063276 -0.017480
-0.067854 -0.022592 -0.048102
0.011744 0.062579 0.000508
-0.014508 0.032758 0.000493
-0.054857 0.044979 0.039896
-0.025687 0.034905 0.069629
-0.049256 -0.018880 -0.066113
0.008859 -0.062638 0.069612
-0.072304 0.004665 0.064050
-0.051840 -0.049388 0.016793
0.030153 -0.065134 -0.012450
0.048331 0.049987 0.044113
0.031077 -0.065396 -0.044130
-0.037527 0.021796 0.002902
0.014962 0.067299 0.015254
-0.067432 -0.019013 0.015275
0.041387 -0.032068 -0.066081
0.018297 0.067491 -0.053157
0.029957 -0.064896 0.005608
-0.027000 -0.029120 0.000607
0.039716 -0.061073 -0.065552
-0.003795 -0.072897 0.060929
0.001231 0.032137 -0.066076
0.011713 -0.014927 0.002861
0.068592 -0.020725 -0.042750
-0.003062 0.070116 0.062281
-0.045953 -0.054081 0.007686
-0.059910 0.038436 -0.035687
0.025573 0.022576 0.069642
0.043333 -0.056202 -0.002198
0.030930 -0.014262 0.069622
0.070280 -0.004621 0.020982
-0.057425 -0.043533 0.062004
0.013423 -0.070036 -0.035978
0.046842 -0.054244 0.026553
0.009322 -0.026278 0.002843
-0.027862 0.004522 0.069667
-0.014855 0.008092 0.000546
0.013906 -0.005285 -0.066113
-0.010839 -0.034012 0.069544
-0.064454 -0.028738 0.002896
0.020209 -0.064339 0.002841
-0.021288 -0.049550 -0.066113
0.005261 0.009791 0.000547
-0.011947 -0.022423 -0.066113
-0.016768 -0.006152 0.000532
0.059411 0.036004 -0.020890
0.010689 -0.006072 0.000531
-0.046073 -0.054689 0.025346
0.055909 0.041068 -0.027579
-0.012123 -0.052218 0.000558
0.006972 0.068985 -0.037249
0.051495 0.047993 0.061769
0.055638 0.016997 -0.066101
-0.014879 0.066921 -0.024537
0.029612 -0.041026 0.069581
0.016359 0.024925 -0.066110
0.026694 -0.021247 -0.066113
-0.060211 -0.038975 -0.028862
-0.031521 0.019847 -0.066070
0.022446 -0.004765 0.069644
-0.001623 0.068875 -0.066113
-0.070611 -0.010189 -0.043593
0.069990 0.006137 -0.041194
0.062960 0.028929 0.008783
0.039729 0.011034 0.069640
-0.059553 0.039635 -0.048740
-0.062352 0.034147 0.040194
-0.018015 -0.069778 0.027485
0.066460 0.019433 0.032915
0.033351 -0.064392 0.050013
-0.026343 -0.067351 0.045498
0.004591 0.067672 0.000502
-0.068504 0.022661 0.060490
0.046769 0.051524 -0.037544
-0.009212 -0.071680 0.044497
-0.060854 0.000187 0.069569
-0.020827 0.065191 -0.015752
0.041713 0.056311 -0.058452
0.002144 -0.023385 0.002854
-0.071072 -0.003973 -0.014779
-0.014076 -0.070034 0.069617
0.053814 -0.017791 -0.066064
-0.023443 -0.067552 -0.066044
0.000014 0.020870 0.069667
0.070986 0.002893 0.052656
-0.019385 -0.069709 -0.042151
0.042493 -0.021470 0.000520
-0.003892 -0.071546 0.015267
-0.066454 -0.028553 -0.060114
-0.067585 -0.021625 -0.033897
-0.071747 -0.002010 -0.037589
0.023023 0.064356 -0.001565
0.052727 -0.049911 -0.060267
-0.057049 0.041502 -0.016983
-0.029769 0.063107 -0.017413
-0.042610 0.056542 0.053352
-0.005945 0.032292 0.069667
-0.028745 0.063760 0.032619
0.035024 0.061033 0.068776
0.064476 -0.029369 -0.009593
-0.049058 0.050257 0.014121
0.066489 -0.025931 -0.026630
-0.050445 0.050412 -0.045267
0.058051 0.037137 -0.000361
0.043435 0.053625 -0.020143
0.004395 -0.046361 0.069650
0.070356 -0.011177 0.045999
0.069865 -0.004093 0.006556
0.019457 0.055855 -0.066113
0.045073 0.005625 0.002871
-0.020289 -0.069735 -0.056777
-0.013768 0.007617 -0.066110
-0.022939 -0.059189 0.069544
0.018536 -0.030560 -0.066113
-0.026430 0.004563 0.002953
-0.008369 0.068849 -0.034927
-0.060830 -0.038725 -0.045840
0.060438 0.034711 0.027018
0.005943 -0.048377 -0.066113
0.048480 0.044578 -0.066113
0.017845 0.001696 0.000539
0.045543 -0.043455 0.069516
0.017016 -0.069962 0.061523
0.023046 0.065159 -0.026150
-0.005809 -0.071180 -0.001717
-0.032288 -0.032340 -0.066113
-0.066097 -0.007035 -0.066094
0.034191 -0.021782 0.000529
-0.048662 0.050322 -0.003644
-0.065125 0.029983 -0.052072
0.038610 0.020537 0.069664
0.032561 -0.064468 -0.033297
0.004655 0.062495 -0.066113
0.062106 -0.036348 -0.049837
-0.024330 -0.068433 0.055015
0.069531 0.004118 -0.014329
-0.071271 0.008893 -0.047614
0.048244 0.051028 -0.059314
0.002832 -0.071944 0.029563
-0.069266 -0.011184 -0.011633
-0.018299 -0.010661 0.069637
-0.042721 -0.058640 0.057428
0.028945 0.062027 -0.066060
-0.046183 -0.054419 -0.017516
-0.066321 0.025300 -0.019964
-0.030485 0.000658 -0.066107
0.041591 0.054458 -0.004561
-0.045575 0.009658 0.002902
-0.034527 -0.062646 -0.013518
-0.036689 -0.061628 0.017318
0.051795 0.034097 0.002935
0.063610 0.029614 -0.046770
0.069030 -0.015812 -0.019522
0.003832 0.069690 0.040315
0.062024 0.006624 -0.066063
-0.007638 -0.053249 0.069610
-0.065509 0.027641 0.036891
-0.035193 0.035738 0.069594
-0.058346 0.039037 0.014395
-0.046911 0.051022 -0.066091
-0.055615 0.003450 0.000528
-0.048100 -0.053845 -0.044163
-0.063517 -0.032170 -0.007088
-0.028807 0.050139 0.069592
-0.013035 0.023003 0.000472
0.004697 0.030011 0.069667
0.027915 0.014063 -0.066113
0.008564 0.023206 0.000504
-0.048910 0.033125 0.000537
0.030759 0.061464 0.016914
-0.028780 -0.066047 0.038022
-0.054535 -0.046594 -0.037505
-0.067083 0.002681 -0.066073
-0.026659 -0.057100 0.002995
0.004387 0.036850 0.000457
-0.048050 -0.024517 0.069667
0.043038 -0.057178 -0.022286
0.054421 0.043703 0.044806
0.025969 0.064703 0.051263
0.067657 0.017653 -0.051840
0.060358 -0.039382 0.061732
0.042912 0.044431 0.069667
0.051456 0.025154 0.069625
0.045282 0.051250 0.006500
0.010566 0.068923 0.067936
0.070664 -0.000980 0.030524
0.023483 0.023827 0.002943
0.071146 0.002760 0.060525
0.029357 0.046483 -0.066113
0.012214 -0.017223 0.069623
-0.035332 0.061434 -0.052555
0.013064 -0.070167 0.040521
0.038348 -0.021695 -0.066097
-0.004087 0.068667 0.003859
0.071132 -0.005833 -0.047502
0.007118 -0.070110 0.069600
0.024852 -0.029212 0.002825
0.071319 0.000936 -0.062977
-0.022465 0.055454 -0.066113
-0.024095 -0.046981 0.069508
0.013974 0.048544 0.003038
0.020306 0.049817 0.000452
0.017238 -0.058116 0.002815
-0.035354 0.038368 0.000549
-0.001332 0.052563 0.002982
-0.071496 0.003919 0.036826
0.017029 -0.013343 -0.066113
0.063412 -0.032819 -0.033384
-0.055740 0.044350 0.051132
-0.027399 0.064448 -0.039642
0.027542 0.044067 0.069667
0.060529 -0.022175 0.000512
0.065495 -0.029039 0.048066
0.035784 -0.061777 0.000342
-0.065640 0.025681 -0.001630
0.044000 -0.017110 0.069576
-0.070736 0.003394 -0.008278
-0.024031 0.040058 -0.066109
0.008840 -0.010814 -0.066113
-0.010363 0.068644 -0.042724
-0.067587 0.021768 0.012217
-0.071099 -0.002667 -0.006713
-0.019705 0.063899 0.002912
-0.062016 0.035597 0.057539
-0.044858 -0.021849 0.000582
0.008348 0.068202 -0.018532
-0.008711 0.029575 0.000470
-0.071430 -0.003718 -0.024242
-0.051721 -0.050493 -0.057863
0.055609 -0.002742 -0.066089
0.016985 0.003962 0.069594
0.000354 0.047939 -0.066113
0.010912 -0.071393 -0.057453
0.066051 0.025041 0.062997
-0.027913 -0.065722 0.012594
-0.052607 0.047373 -0.027322
-0.053595 -0.025117 -0.066113
-0.067422 0.024448 -0.045800
0.017628 -0.041709 0.002808
-0.043905 -0.056961 -0.032012
0.028751 0.056440 0.069667
-0.033758 0.061120 0.015941
-0.001563 -0.025645 0.069572
0.025673 -0.056087 -0.066095
-0.035734 0.061408 -0.059933
-0.047810 0.052689 -0.051747
0.034874 -0.063982 -0.060342
-0.056698 0.015582 -0.066049
-0.029489 0.064290 0.062055
-0.070329 -0.006117 0.011363
0.040730 0.057203 0.066066
0.067963 0.009912 -0.008424
-0.061392 -0.034869 0.000523
0.010270 -0.036206 0.000614
-0.041298 -0.002655 0.000537
-0.047513 -0.050585 -0.066029
0.043584 -0.057312 -0.038272
-0.008226 0.011647 0.000550
0.060041 -0.037816 0.023880
-0.050533 0.050094 0.042221
-0.068263 -0.017212 -0.023573
0.049508 0.049344 -0.045344
0.068507 0.012563 0.045486
0.061944 -0.011624 0.069489
-0.036948 0.051009 0.002923
0.023767 0.064464 0.010209
0.019001 -0.049173 0.069597
0.047117 -0.008793 0.000527
-0.056674 -0.043547 -0.020825
0.038722 0.018945 0.000555
0.026266 -0.066427 -0.020717
-0.019415 -0.012555 0.002890
-0.036680 -0.048054 0.000482
0.014230 -0.068758 0.008340
-0.038938 0.058300 0.028010
0.035002 0.010273 0.000547
-0.063483 0.031455 0.030919
-0.054392 0.045122 0.029300
-0.014701 0.054952 0.069632
0.042023 -0.002177 0.069611
-0.013062 -0.035934 0.002843
-0.013078 0.031602 -0.066060
0.028773 -0.065195 -0.002572
-0.019401 -0.058829 0.000443
0.040405 0.035491 -0.066113
-0.012600 -0.000256 0.000538
0.063658 0.027302 -0.002281
0.031437 0.061877 -0.040711
-0.004175 0.046928 0.069667
0.016882 0.067036 0.028041
0.001135 -0.072323 -0.044013
-0.027828 0.063568 0.020784
0.019675 -0.066814 -0.066098
0.014093 -0.038365 -0.066113
-0.037328 -0.062519 0.052423
-0.030211 0.062456 0.005251
-0.061142 0.027787 -0.066050
0.017458 -0.069752 -0.055515
0.008012 -0.037659 0.069648
0.050373 -0.030863 -0.066043
0.053064 -0.048006 -0.020015
0.035804 -0.050400 -0.066078
0.048791 0.012703 -0.066101
0.028508 0.039362 0.000433
0.011456 0.064489 -0.066113
-0.022357 0.045529 0.000546
0.065244 -0.028083 0.019890
0.061027 -0.037571 0.048521
-0.005039 0.069597 0.043061
-0.066233 0.012024 -0.066047
0.064343 0.026539 0.019885
-0.014176 -0.035192 -0.066113
0.064883 -0.030179 -0.041749
0.016654 -0.069682 0.051263
-0.003586 -0.052295 0.002854
-0.033859 0.057163 -0.066104
-0.068817 0.019355 0.032583
0.047865 0.022108 -0.066110
-0.019001 -0.069321 -0.016559
0.055635 -0.044962 0.026124
-0.070509 0.007114 0.016018
0.039617 0.056998 0.032240
-0.039659 0.058442 -0.040249
0.064617 0.027985 -0.058435
0.057053 -0.009058 0.000526
0.067447 0.013071 0.018435
0.070013 0.004547 0.034562
0.053422 -0.048215 -0.037783
-0.007999 -0.016321 0.000544
-0.010867 0.060682 0.000559
-0.038519 -0.060341 -0.002842
0.053586 -0.034123 0.002861
0.062075 -0.036628 -0.066099
-0.012101 0.007661 0.069667
-0.020406 -0.068678 -0.008775
-0.070040 0.011563 -0.015229
-0.068068 -0.022696 -0.054940
-0.026104 -0.035701 -0.066113
0.056273 0.016604 0.002882
-0.064274 -0.032331 0.038815
0.045503 -0.037503 -0.066057
-0.064763 -0.030235 0.020424
0.023589 -0.068342 0.060794
-0.023324 -0.068699 -0.048235
-0.053817 -0.047693 0.047429
-0.069630 -0.015061 0.051626
0.068506 -0.019287 -0.028820
-0.043908 -0.037798 0.069601
0.050613 -0.050621 -0.010243
0.066460 -0.019812 -0.066033
0.015994 -0.068256 -0.002597
-0.007026 0.062508 -0.066113
0.069387 0.005867 -0.022016
-0.041000 0.027781 0.069589
0.066257 0.018288 -0.016077
-0.007384 -0.031515 -0.066113
0.036019 -0.061826 0.008974
0.063334 0.031179 0.062989
-0.050137 0.050941 0.056106
0.014151 -0.069628 -0.029323
-0.038288 -0.022974 0.002887
-0.047759 0.052132 0.035588
0.023979 0.065908 0.063909
0.039224 0.037102 0.069661
0.035674 -0.063033 -0.039014
0.047521 -0.054855 0.057737
-0.069731 0.018140 -0.053016
0.069045 -0.020619 0.068264
0.057218 0.040607 0.063065
-0.024960 0.021009 -0.066075
-0.071345 -0.004177 0.027464
0.062533 -0.033577 -0.014366
0.013258 -0.070384 -0.044758
0.057803 0.039663 -0.057637
0.031081 0.055201 0.000440
-0.042811 0.047873 0.069623
-0.069291 -0.016177 -0.046110
0.015172 -0.035183 0.069656
-0.049041 0.050519 0.020736
-0.033004 0.061569 -0.011848
0.027479 0.063371 0.027704
0.028143 -0.066669 0.044046
-0.004000 -0.064969 0.069651
-0.000716 0.069865 -0.047394
-0.053496 -0.020659 0.000572
0.015674 0.067452 0.040093
0.001736 -0.061183 -0.066113
-0.044567 0.054049 -0.014047
0.022957 -0.046100 -0.066106
-0.058844 0.040039 0.041538
0.069588 -0.017760 -0.052919
-0.010034 0.068432 0.037550
-0.044898 0.002704 -0.066096
0.064562 -0.032311 0.064954
-0.015215 0.050133 0.002896
-0.032593 -0.063979 -0.025567
0.062277 0.031756 -0.034038
-0.017031 -0.047255 0.000597
-0.039841 -0.060533 -0.059517
-0.066574 -0.021543 0.007705
