-0.025324 0.024151 -0.062254
0.021690 -0.025895 0.065601
-0.008518 0.003485 0.002714
-0.061812 -0.018252 0.008958
0.063932 -0.020670 -0.036655
0.006041 0.068040 0.050669
-0.020412 -0.062484 -0.057486
-0.052984 -0.039777 0.052628
0.037295 0.056818 -0.040895
0.063817 0.020199 0.043655
-0.049101 0.046645 -0.031054
0.011649 -0.063972 0.014193
-0.057983 0.036272 0.064861
0.011246 0.032549 0.065472
-0.065982 -0.011055 -0.050734
0.060835 -0.026929 0.026412
0.023486 -0.024119 -0.062201
0.019615 0.064651 0.024549
0.040068 0.029968 0.000550
-0.010465 -0.058343 0.065601
-0.026092 -0.003423 0.065592
0.025228 -0.060479 -0.049685
-0.056901 0.036050 0.024592
0.024311 -0.034794 0.000497
0.039012 0.019045 -0.062254
-0.007976 0.068002 -0.058532
0.066967 -0.000892 0.021968
-0.035452 -0.053879 -0.001754
-0.065950 0.013248 0.034207
-0.015918 0.052665 0.000575
0.044209 -0.049967 0.051135
0.050863 -0.042121 -0.007563
-0.054348 0.040987 -0.043757
-0.033597 -0.037697 -0.062253
0.054681 0.000397 0.065509
0.062547 0.023620 -0.038814
-0.066577 0.005651 -0.027733
0.047241 0.048613 0.055794
-0.058903 -0.026885 0.013268
-0.033097 0.059358 0.036446
-0.054875 -0.035919 -0.022913
-0.048476 0.009924 0.000489
-0.008855 -0.064496 -0.016614
0.005136 0.067437 -0.022209
0.016537 -0.040081 -0.062254
0.045743 -0.048840 -0.057880
-0.027971 -0.030260 0.000478
-0.062577 -0.008451 0.065479
-0.023800 0.042037 0.065535
-0.024784 -0.060634 0.040282
0.043073 0.051817 0.015878
-0.053350 0.013436 -0.062214
0.049592 -0.009734 0.002746
0.066412 -0.005668 -0.007196
0.032531 0.041226 -0.062254
0.062566 -0.000781 -0.062204
-0.032518 -0.028286 0.065581
-0.049814 -0.043038 -0.047000
0.016216 -0.057373 0.065576
0.014049 0.049025 0.000510
-0.011634 -0.009820 -0.062254
0.014267 -0.003401 0.065601
0.062796 -0.025271 -0.060923
-0.060260 -0.024532 -0.024544
0.005763 0.021848 -0.062254
-0.029080 0.061500 0.055873
-0.004622 -0.042597 0.002853
0.023607 -0.059731 -0.012754
0.051462 0.043256 -0.014506
-0.010505 -0.064155 0.013590
0.022550 0.006166 0.002752
-0.042854 0.038976 0.000592
0.041871 -0.050610 0.016428
-0.005526 -0.027200 0.065601
0.062612 -0.024737 0.058722
-0.035719 0.058551 -0.062188
-0.019031 0.064074 -0.023814
0.004222 -0.065716 0.042759
0.006416 -0.015081 0.002788
-0.061114 0.026675 -0.011579
-0.043836 -0.014672 -0.062243
0.009959 0.050944 -0.062254
-0.005391 0.023883 0.002682
-0.005294 0.067682 0.029193
-0.044467 0.016095 0.065500
0.036607 0.024876 0.065597
0.005712 -0.065387 -0.038653
-0.037537 -0.054199 0.062493
0.060354 0.026844 0.012807
0.066990 0.010353 0.048431
0.067847 0.006288 -0.059367
-0.005972 0.017426 0.065524
0.012669 0.057592 0.065499
-0.049314 -0.000185 0.000499
0.026572 0.061855 -0.009987
-0.064816 -0.012625 0.037033
0.042421 -0.050744 -0.027117
-0.025999 0.061036 0.012195
-0.051072 0.035908 -0.062176
-0.033617 0.059396 -0.043571
0.063358 0.018900 -0.014778
-0.065971 0.001322 0.009311
-0.009279 -0.041872 -0.062254
0.024802 0.010213 -0.062254
-0.051534 0.044493 0.039601
0.057484 0.034964 0.018386
-0.039963 0.041475 0.065483
-0.028647 -0.058950 -0.032678
-0.029695 0.005253 -0.062254
0.052213 -0.041980 0.040964
-0.065564 0.017146 -0.046742
0.012803 0.067010 -0.043956
0.061446 -0.026152 -0.023190
0.035904 0.058171 0.058942
-0.039751 -0.051675 0.032432
0.003965 0.067021 0.005458
-0.058957 -0.030936 0.063916
-0.038924 0.055116 -0.009582
0.036778 -0.039291 0.065511
0.000121 -0.064478 -0.011111
0.005146 0.021768 0.000537
0.045738 -0.013550 0.065523
-0.028526 0.015730 0.000495
0.055138 0.039849 0.042927
0.057007 0.036822 -0.062254
-0.065476 0.016479 0.054700
0.067417 0.003334 -0.034248
0.039168 -0.035781 -0.062254
-0.065644 -0.007654 -0.007678
-0.044219 -0.003200 0.065530
0.067480 -0.007094 0.051713
0.035037 0.056942 0.005755
0.054513 0.032042 0.065575
-0.063872 0.020131 0.022238
-0.066897 -0.003968 -0.041316
-0.038419 -0.048754 -0.062254
-0.051624 -0.029082 -0.062238
0.024001 -0.060031 0.028285
0.034341 0.056288 -0.062134
-0.004908 0.068422 0.065594
0.015699 -0.053327 0.000518
0.041859 0.007571 -0.062244
0.027405 0.062690 0.047465
-0.028117 -0.007313 0.002713
-0.010417 0.066595 0.010901
-0.025759 -0.040724 0.065601
-0.008990 -0.007926 0.065560
-0.050330 -0.040957 -0.000941
0.053671 0.011297 0.002737
0.051522 -0.037384 0.065533
0.059859 0.013800 0.065508
0.010061 -0.036740 0.065601
-0.042235 0.052626 0.018361
-0.059231 -0.000620 -0.062211
-0.022854 0.035853 0.000587
0.061066 -0.025474 -0.000230
-0.009964 -0.016608 0.000520
-0.044983 -0.047354 -0.015930
-0.013832 0.047503 -0.062254
0.054427 -0.037757 0.014317
0.022939 0.063694 -0.027443
-0.055736 -0.035121 0.032714
-0.007419 0.042263 0.065576
0.057293 -0.034904 -0.045650
-0.007448 0.039964 -0.062254
0.031400 0.005278 0.065601
0.034415 -0.021087 0.000492
0.028518 -0.059094 0.047384
-0.001388 0.068065 -0.037734
0.049054 0.046606 -0.048311
0.008403 -0.008395 -0.062252
-0.055110 0.037902 -0.001892
0.065366 0.011865 0.004421
0.052769 0.042305 -0.030126
0.038991 -0.041145 0.000509
0.041919 0.053329 0.035393
-0.018973 -0.062957 0.053964
0.027577 0.044140 0.065486
0.035833 0.002843 0.002767
-0.066423 -0.002365 0.024715
-0.025752 0.020556 0.065559
-0.060321 0.031765 -0.058443
0.047906 -0.014436 -0.062188
-0.044400 -0.019020 0.002716
-0.008269 -0.064526 0.024402
0.007441 -0.057715 -0.062254
0.011941 0.039723 0.002673
0.026813 -0.058294 0.008101
0.007521 0.062355 -0.062254
-0.042917 -0.048971 0.015487
-0.038460 0.019936 -0.062237
0.067337 0.005515 0.035802
-0.058325 -0.027664 -0.001599
-0.025162 0.061299 -0.007880
-0.065302 0.011845 -0.002806
0.067009 -0.011578 -0.050887
0.008852 -0.028963 0.002834
-0.025152 -0.045269 -0.062254
-0.011876 0.009378 -0.062254
-0.059756 0.030939 -0.029267
-0.024542 -0.017413 -0.062254
-0.046366 -0.019879 0.065544
0.043650 -0.049882 0.033257
-0.014020 -0.053649 0.000437
0.008345 0.013074 0.065540
-0.058381 0.034152 0.042222
-0.067237 0.000634 0.048840
0.032271 -0.058364 0.064584
0.010479 -0.065112 0.052481
0.066282 -0.012938 0.035043
-0.044560 0.023755 0.000524
0.030851 0.060140 0.016238
-0.013477 -0.063990 -0.031714
0.026277 -0.059464 -0.032003
-0.061636 -0.023050 0.050891
0.015197 0.038267 -0.062254
-0.015111 0.066140 0.044514
0.026391 -0.009560 0.065601
0.023342 0.025237 0.000560
-0.059187 -0.029155 -0.040078
0.050568 0.041818 0.002792
0.001379 -0.059623 0.002813
-0.046507 -0.039958 0.065570
0.023098 0.064351 -0.052292
-0.028450 -0.058629 0.017887
0.008712 -0.006821 0.000514
-0.044540 0.051255 -0.038217
0.030712 -0.053185 -0.062253
-0.002194 -0.028297 -0.062232
0.025334 -0.007810 0.002796
0.036927 -0.054289 -0.006697
0.060823 -0.003351 0.002760
0.014555 -0.063204 -0.018814
0.040957 0.053572 -0.020879
-0.007519 0.041658 0.002650
0.024893 0.052694 -0.062254
-0.002775 -0.043370 0.065601
-0.047811 0.048587 0.053279
-0.032882 -0.056013 -0.018598
-0.001685 0.002674 0.065544
0.034797 0.045197 0.000482
-0.063886 0.020171 -0.020090
0.063804 0.022052 -0.058298
0.040915 -0.052683 -0.044968
-0.041931 0.052362 0.003412
-0.002543 0.067143 -0.000533
0.002351 -0.066165 0.065394
0.036489 -0.008277 -0.062224
0.064123 0.017661 0.027098
-0.020285 0.036776 -0.062254
0.014327 -0.064143 -0.042428
-0.042934 -0.049631 -0.034668
0.010570 -0.012454 0.065601
-0.007876 -0.065177 -0.062254
-0.044041 -0.049302 0.048678
0.059822 0.027498 -0.001207
-0.039750 -0.032112 0.000493
0.045572 -0.024792 0.002750
-0.044075 -0.005338 -0.062237
-0.054013 0.039783 0.009037
0.066618 -0.008088 -0.023745
0.023166 0.024310 0.065549
0.008145 0.046269 0.065502
0.006553 0.007459 0.000500
0.063869 -0.018937 0.017592
-0.014513 -0.064036 -0.042687
0.063020 0.023612 0.054624
-0.053261 0.041508 -0.017777
0.062149 -0.025140 0.043769
-0.006275 0.021749 -0.062254
0.059403 0.030866 -0.022811
-0.030603 0.060103 -0.028985
0.044987 0.014024 0.065582
0.066313 0.009921 -0.008366
-0.025016 -0.059779 -0.005576
0.015830 0.066181 0.039018
-0.067321 0.007777 -0.060838
-0.018270 0.060530 0.065526
0.008448 -0.064963 0.030979
-0.039961 0.055908 0.062545
0.019333 0.064271 0.007997
0.000462 -0.065073 -0.028751
0.068157 0.002052 0.061527
-0.032505 -0.057232 -0.047368
-0.000525 0.052280 0.000521
-0.019484 -0.021662 0.065576
0.029834 0.018895 0.002726
0.017678 0.065114 -0.015090
-0.010768 0.066485 -0.008227
-0.009673 -0.064760 0.055713
-0.037230 0.006536 0.065543
-0.018167 0.008814 0.065574
-0.032923 0.002542 0.000499
-0.063063 -0.020160 -0.059216
0.059183 0.032139 0.031894
0.058306 0.007801 -0.062230
0.036649 -0.020434 0.065546
0.033345 -0.056857 0.033431
-0.020073 0.016141 0.002681
-0.059964 0.021638 0.065390
-0.051782 0.003245 0.065468
-0.050119 -0.042120 0.030183
0.041668 0.038967 0.065559
0.026402 0.026758 -0.062254
0.010013 -0.042425 0.000476
-0.062076 -0.019214 0.025816
0.030683 0.060784 0.034063
-0.017563 -0.036480 0.000417
-0.020456 0.064291 -0.043957
-0.032643 -0.042537 0.000414
0.065852 -0.009077 0.004517
-0.023316 -0.049234 0.000401
0.029597 -0.038881 -0.062254
0.052836 -0.040892 -0.026852
-0.059066 0.033481 0.053728
0.038947 0.012933 0.002761
-0.061542 0.028070 -0.040666
-0.060258 0.027934 0.008703
-0.040650 0.054907 0.043861
0.023721 0.064195 0.057429
0.025050 -0.045393 0.000523
-0.031408 0.042811 0.002624
0.021899 -0.003731 -0.062247
-0.037912 0.045340 -0.062223
0.058216 0.034896 -0.046064
-0.048154 0.048342 -0.052263
-0.033112 -0.056828 0.052718
0.042725 -0.051791 0.064843
-0.020671 -0.032838 -0.062249
-0.028460 0.028818 0.000554
-0.018261 0.064290 0.025359
-0.025234 -0.058377 0.065454
0.057274 -0.035175 0.053103
-0.013061 -0.029463 0.002797
0.044259 0.051198 -0.033703
0.064530 0.016553 -0.024246
-0.065275 -0.008174 0.005812
-0.019440 0.065199 -0.058882
0.014525 -0.021496 0.002821
-0.051985 -0.039320 0.009156
-0.015959 -0.062460 -0.006453
-0.040462 0.054467 -0.022999
0.049327 0.045906 0.024450
0.010732 -0.049365 0.065601
0.019995 0.065354 -0.062050
-0.057580 -0.019773 0.065512
0.043679 0.004596 0.065559
0.036351 -0.010565 0.002727
-0.040176 -0.008945 0.000509
0.002980 0.026544 0.065493
-0.014095 0.066296 -0.036054
-0.050328 -0.042950 -0.060297
0.021368 -0.062057 0.057572
0.053755 0.023954 -0.062251
0.000417 0.067513 0.018081
-0.064285 -0.013874 -0.031313
-0.001448 0.006504 -0.062254
0.066984 0.004081 -0.021083
0.022991 0.039717 0.000576
-0.034376 0.033619 -0.062238
0.051264 0.044128 0.034180
0.046884 0.047938 -0.003517
-0.004508 0.054777 -0.062254
0.051279 -0.031266 -0.062250
0.059995 -0.028807 0.065526
0.063913 -0.018389 -0.008582
0.004319 -0.039401 -0.062254
0.050246 -0.044172 -0.043865
-0.042425 0.053807 -0.054636
0.067432 -0.010550 0.064043
0.064941 0.017990 -0.049900
-0.035505 0.027301 0.065520
0.067829 0.003206 -0.046989
0.066565 -0.014394 -0.059854
-0.002537 0.015122 0.002700
-0.048600 0.045981 -0.002867
0.012468 -0.063358 -0.002289
0.050038 -0.043666 0.027663
-0.067027 0.007723 -0.049189
-0.049655 0.045891 0.029054
-0.007405 -0.064798 0.039014
0.030906 0.060376 -0.031434
-0.061483 0.026985 0.033023
0.032275 -0.056979 -0.022839
-0.025515 -0.018429 0.000520
0.004764 0.068182 -0.053582
-0.015320 -0.044821 0.065601
0.017094 -0.063754 -0.059193
0.015496 0.015285 0.002718
0.063283 -0.023508 -0.050220
0.025579 -0.037711 0.065563
0.025508 0.049542 0.000458
0.024508 -0.048873 0.065541
-0.040964 -0.051644 -0.046962
0.008627 0.067492 -0.032313
0.011994 0.067456 0.061376
0.038922 0.048228 -0.062254
-0.065001 0.019729 -0.061999
-0.018522 0.029801 0.065589
0.051488 -0.033520 0.000493
0.003930 0.067247 -0.011540
0.016147 0.065207 -0.003124
-0.006439 -0.063225 0.002843
-0.029571 0.052565 0.065503
-0.054668 -0.035654 -0.010852
0.052694 0.043397 0.065336
-0.003289 0.068242 0.042785
0.011144 -0.024593 0.065601
-0.004550 -0.006793 0.002743
-0.026114 0.048123 -0.062244
-0.018533 -0.061766 0.005481
0.049475 0.045066 -0.062218
-0.066093 0.008011 0.017901
-0.063524 0.023098 0.044798
0.002575 -0.065791 -0.050242
0.058903 0.033312 -0.034740
0.000531 0.032968 0.002673
-0.059173 -0.029147 0.042278
0.030871 0.060155 -0.018830
-0.001067 -0.022927 0.002799
0.048709 0.024360 0.000537
0.037241 0.056956 0.047132
-0.032555 0.059006 0.021251
0.067149 -0.006599 -0.040870
-0.036032 -0.011726 0.065572
-0.066103 0.003800 -0.009199
-0.051202 0.004113 -0.062211
-0.009038 0.028391 0.065562
0.059091 -0.030109 -0.007480
-0.026597 0.053086 0.002640
-0.015497 -0.007760 0.002726
0.036554 -0.024391 -0.062200
0.044224 0.051746 0.064930
-0.035503 -0.055586 -0.056375
0.057756 0.034293 -0.010865
-0.026415 -0.005292 -0.062254
-0.050626 0.020806 -0.062189
-0.008862 0.067831 0.054768
0.046288 0.003307 0.002732
-0.065687 -0.011303 0.048207
-0.036353 -0.044901 0.065601
0.005202 0.067676 0.034903
0.021197 -0.060712 0.019215
0.030872 0.034663 0.002700
-0.043221 -0.048560 -0.004509
-0.060956 -0.021458 -0.013552
0.064850 0.014666 0.017750
0.067323 -0.004666 0.040918
-0.046060 0.049027 -0.016899
0.000726 -0.064883 0.011464
0.042596 -0.028208 0.065502
0.033268 -0.057164 -0.037902
-0.067616 0.001273 0.063878
-0.034448 0.057136 0.000554
-0.058254 -0.031785 -0.055742
-0.030518 -0.057219 0.008648
-0.039179 0.028219 0.002641
-0.064717 0.018878 -0.036398
-0.035496 -0.021212 0.002731
0.047851 0.047840 0.045757
0.032324 0.059967 -0.052979
0.055252 -0.013606 0.065477
0.028065 0.062239 -0.042724
-0.054895 -0.017349 0.000515
0.028057 0.014018 0.065601
-0.014149 -0.021174 -0.062254
-0.018714 0.016982 -0.062254
0.057236 -0.014229 0.000501
-0.018987 -0.062200 0.025671
-0.016679 -0.033868 0.065601
-0.057933 -0.030708 0.023563
0.027047 -0.058141 -0.002896
0.019126 -0.062124 0.037462
0.066199 -0.014061 0.045467
0.053245 -0.041612 -0.054358
0.024982 0.059154 0.000345
-0.019160 0.003795 0.000500
-0.000560 -0.054128 0.065601
0.057191 -0.034496 0.035898
0.033388 -0.056361 0.020047
-0.003651 0.067769 -0.027409
-0.015926 0.028086 0.000556
0.035590 0.056740 -0.007252
0.002514 0.031934 -0.062254
-0.051084 -0.041085 -0.031551
-0.049582 -0.043102 0.041763
-0.060190 0.018820 0.002742
0.059707 -0.028345 0.014587
0.009888 0.066858 0.012372
-0.002369 -0.004435 -0.062254
0.057779 -0.032874 -0.017636
0.016298 0.023997 -0.062254
-0.051176 0.043983 0.018596
-0.050480 -0.026936 0.002724
-0.023732 -0.060646 -0.024131
0.023367 -0.018489 0.002786
-0.015585 0.048935 0.065564
-0.060260 0.001963 0.002746
-0.010226 -0.052455 -0.062254
-0.053666 -0.010803 -0.062254
0.044576 -0.047936 0.003992
-0.032103 0.059110 -0.016364
0.033065 -0.029844 0.002735
0.065650 0.014794 -0.038084
-0.039100 0.011791 0.000488
0.049106 0.023544 0.065585
-0.029263 -0.058600 0.031777
0.058136 0.018663 0.002740
0.040460 0.055016 -0.050715
-0.019013 0.061709 0.000556
0.062479 0.026189 0.064494
0.046149 -0.004305 -0.062220
-0.024262 0.062510 0.035820
-0.061863 -0.021323 0.040606
-0.045261 0.049088 0.065448
0.016393 -0.001123 0.000510
0.056727 0.035520 0.003688
-0.004012 -0.065286 -0.042181
0.000884 -0.008968 0.065601
-0.066989 -0.005098 0.057079
-0.066837 0.003431 0.037195
-0.018791 0.001805 -0.062254
0.031251 -0.051622 0.002746
-0.066855 0.005959 -0.039226
-0.033861 -0.055939 0.040736
0.037827 -0.054963 -0.055873
-0.043047 -0.049305 -0.025572
0.053444 0.040433 -0.004528
0.011424 0.060943 0.002837
0.066884 0.012457 0.057967
0.005858 -0.022291 -0.062235
0.014188 0.023257 0.000547
0.037543 -0.008023 0.065560
-0.041785 -0.041785 0.002783
0.005493 -0.064742 -0.019544
-0.002829 -0.052399 0.000465
0.066507 0.004272 0.009597
0.000171 -0.065814 0.055782
-0.042656 0.030739 -0.062219
0.048886 0.015236 0.002728
0.001642 -0.036183 0.000438
-0.020115 0.055958 -0.062250
-0.039078 0.056206 0.052276
0.014276 -0.049658 -0.062254
-0.018330 0.063974 -0.014028
0.037460 -0.055115 0.056048
0.000300 -0.065286 0.029109
-0.050964 0.024501 0.065456
-0.009061 0.067006 -0.017281
-0.049128 0.030613 0.000553
-0.020140 -0.025416 0.000490
-0.054189 0.041677 0.055220
0.019430 0.065112 -0.036327
0.023999 0.036705 -0.062254
0.041244 0.028395 -0.062254
-0.067501 -0.000460 -0.054191
-0.021858 -0.054273 -0.062254
-0.039230 0.004593 -0.062243
-0.002015 -0.018012 0.065601
0.050918 -0.043743 0.053612
0.061595 -0.026919 -0.041661
0.066215 -0.009397 0.017964
0.017312 0.039566 0.065466
0.048709 0.046034 0.009014
-0.024290 -0.013619 0.065565
0.063152 0.018537 -0.005457
-0.003757 -0.030076 0.002816
0.025589 -0.015033 -0.062224
0.058282 -0.008820 -0.062187
-0.032863 0.014946 0.065545
-0.008304 0.067766 -0.049288
-0.054129 0.014702 0.065433
0.009236 -0.031620 -0.062217
-0.024755 0.062444 -0.035679
-0.051714 0.019076 0.002682
0.034210 -0.048440 0.065550
-0.060042 0.028958 0.017150
0.004147 -0.029609 0.065601
0.065152 -0.015342 -0.018359
0.037431 -0.054263 -0.015800
0.016441 0.066394 0.052387
0.064432 -0.019271 0.050082
0.058243 -0.032650 -0.028693
0.061163 -0.018281 0.065437
-0.014676 0.019638 0.065575
-0.018778 0.045121 0.000627
0.042273 0.041347 0.000505
-0.013123 0.000137 0.065530
-0.042245 -0.027942 0.065575
-0.019149 -0.061844 0.014966
0.005568 0.012212 -0.062254
0.022810 0.064022 0.039791
0.005547 0.046115 0.002676
0.067644 -0.003304 -0.052695
0.010336 -0.064678 -0.030923
-0.063381 0.020573 -0.006052
-0.066798 0.009560 0.047589
-0.013629 -0.045373 0.002845
0.050628 0.003848 -0.062232
0.021057 -0.048459 0.002731
-0.015429 -0.063530 0.035170
0.004286 0.060810 0.065551
-0.053202 -0.008276 0.000507
0.062017 0.024511 0.036035
0.021178 -0.061039 -0.024863
-0.052362 0.044726 -0.062105
-0.014503 0.038517 0.065597
0.036698 -0.054493 0.010346
-0.055922 0.038745 -0.052176
0.007133 -0.065709 -0.058499
-0.034714 -0.013432 0.002717
0.065940 0.014450 -0.062233
0.014217 0.066989 -0.055608
-0.000971 0.034373 0.065529
-0.061166 -0.013819 0.000511
0.066708 -0.009568 -0.032662
0.061847 0.004356 0.000507
-0.043501 -0.032262 -0.062253
0.045654 -0.016288 0.002743
0.043564 -0.049073 -0.008734
0.047431 0.047811 -0.021257
-0.065203 0.016724 -0.027917
-0.016787 0.064513 0.016838
-0.055259 -0.036487 -0.048407
-0.038510 -0.036545 0.065598
-0.024650 -0.060698 -0.046562
-0.066327 0.000791 -0.017277
0.009561 -0.065446 0.060897
-0.058097 0.033372 -0.015733
0.063485 -0.020914 0.033733
0.003486 0.068442 0.061772
0.035085 0.047780 0.065499
-0.037223 0.056966 -0.033275
0.043612 0.051024 0.004414
-0.066138 0.008903 -0.019909
0.025573 -0.025901 0.002752
0.017591 -0.038813 0.000488
0.020229 0.061418 0.065465
0.050057 -0.040331 0.002770
0.033053 -0.057612 -0.048234
0.061588 0.027714 -0.052462
-0.026421 0.062543 -0.054993
-0.063102 0.021831 0.013903
-0.048313 0.046463 0.011096
-0.042235 0.053685 -0.045922
0.062619 -0.021806 0.009796
-0.050831 -0.029554 0.065538
-0.042910 -0.049826 0.039962
-0.040446 -0.001095 0.000502
0.001656 0.060004 0.000447
0.048279 0.034729 0.002717
-0.029006 -0.058538 -0.062065
0.055184 0.039519 -0.038835
-0.062809 0.025513 0.052721
-0.013877 -0.064167 0.044186
-0.000682 0.066594 -0.062254
0.020715 0.001831 0.065601
-0.036160 0.019547 0.000509
0.047649 -0.045757 0.019855
-0.012047 0.065712 0.002832
0.005452 0.066953 -0.002687
0.040219 -0.052331 0.026143
-0.006162 -0.016012 -0.062254
0.060669 0.027231 0.025418
-0.063315 -0.018274 -0.047740
0.032493 0.059380 0.026129
0.053759 0.040228 0.012008
-0.012465 0.020218 0.000522
-0.018096 0.028134 -0.062254
0.015500 0.057027 -0.062254
-0.055748 0.038065 -0.028870
-0.010954 0.059816 -0.062254
0.028302 0.062425 -0.059663
-0.008113 0.009538 0.065521
-0.034719 -0.055588 -0.039676
0.061158 0.029877 -0.061795
0.000074 0.045344 0.065544
0.018882 -0.030522 0.002785
-0.017995 -0.061544 0.065401
-0.036690 -0.052904 0.005712
0.066697 0.001364 -0.011172
0.017877 0.056659 0.002820
0.049030 0.035613 -0.062254
0.012767 0.024626 0.065509
0.044280 0.051550 -0.057220
-0.058493 0.034225 -0.045208
-0.054889 -0.034825 0.003132
-0.040716 0.054282 0.026099
-0.038491 -0.052261 0.024511
0.053756 0.001341 0.000492
0.054474 0.014855 -0.062242
-0.050144 -0.012802 0.065500
0.039312 0.054983 -0.028600
0.015069 -0.062409 0.005170
-0.015060 -0.063202 -0.021502
-0.058975 -0.030411 0.052564
-0.022849 0.063588 0.051309
-0.046919 0.049113 0.044206
0.043982 -0.021492 -0.062190
-0.058789 0.031091 -0.005361
0.054620 0.039620 0.024185
-0.044246 0.010741 -0.062226
-0.056898 -0.002804 0.065455
-0.003035 0.014266 -0.062254
-0.037296 0.035441 0.000579
0.004276 0.001038 -0.062254
0.058418 -0.033794 -0.059964
-0.067057 0.008800 0.055573
0.047478 -0.046977 -0.050418
0.034875 -0.056397 0.043607
0.061476 -0.027420 0.051412
-0.050874 0.039569 0.065434
-0.025652 0.061640 0.025515
0.014995 -0.012658 -0.062243
-0.031093 -0.056641 0.065436
0.003797 0.067501 0.025155
0.007800 0.040806 -0.062254
0.035386 -0.031232 0.065535
0.065915 -0.014891 -0.041512
-0.009555 -0.050051 0.065601
0.012604 -0.063635 -0.011302
0.061040 -0.004067 0.065476
-0.042715 0.024429 0.065497
0.066198 0.012503 -0.030693
-0.029341 -0.057217 0.000331
-0.032645 -0.035999 0.002782
-0.037277 -0.010565 -0.062253
0.055135 0.040145 -0.050832
-0.034287 0.013434 -0.062247
-0.005249 -0.064852 -0.023559
0.003312 -0.048362 0.002825
-0.049260 0.046174 -0.023311
-0.025832 -0.038915 0.000420
0.017936 -0.014679 0.065601
-0.044509 -0.047303 0.002963
-0.018250 -0.063164 -0.049994
0.058449 -0.032741 -0.037800
-0.006651 0.031872 0.000576
-0.054950 -0.036955 0.045820
-0.060490 0.027712 0.065376
0.062371 0.021775 0.018929
0.030707 -0.057146 -0.011802
-0.045258 0.050303 0.033419
-0.045966 -0.047529 -0.056091
-0.056089 -0.022943 -0.062222
-0.056349 0.026524 -0.062219
0.062405 -0.018644 0.002774
-0.039609 0.055399 0.036368
0.050378 -0.044620 -0.062131
0.029345 -0.040354 0.002737
-0.065312 0.014850 -0.014908
0.010792 0.003305 0.065588
0.037753 0.011934 0.065601
-0.032947 0.059141 0.028928
-0.063266 -0.014543 -0.009537
0.040093 0.000130 -0.062238
-0.004450 -0.065110 -0.034415
0.040872 0.040994 -0.062254
-0.022153 -0.028661 0.065595
-0.037740 -0.052866 -0.013864
0.057738 -0.034807 0.060518
0.013602 0.003198 0.002745
-0.007322 0.050187 0.002677
0.029884 -0.023504 0.065566
0.066637 -0.005304 -0.014607
-0.003649 0.061123 0.065588
0.054487 -0.024598 -0.062216
-0.045932 0.050708 -0.060366
0.026121 0.061914 0.009756
0.055637 -0.035868 -0.010567
-0.020798 -0.024392 -0.062254
0.015505 0.014823 0.065559
0.006246 -0.064995 0.023951
-0.036757 -0.002344 -0.062250
0.029813 -0.059029 -0.055262
0.035711 -0.047782 -0.062254
0.011329 0.032008 -0.062254
-0.001736 0.067631 -0.017083
0.052210 -0.018474 0.000507
-0.008333 -0.023404 0.002787
-0.046720 -0.010942 0.002700
0.021571 -0.061348 -0.037311
-0.036658 0.050057 0.065483
0.033322 0.023655 -0.062254
-0.015236 0.065627 0.031890
0.016555 -0.021767 -0.062220
0.006420 0.028806 0.002686
0.015885 -0.062792 0.023790
-0.043587 -0.050141 0.062052
0.061799 0.024020 -0.021934
0.027435 -0.001206 0.000511
0.018927 -0.061219 -0.007359
-0.001631 0.044334 -0.062254
0.053687 -0.025208 0.065464
-0.018126 0.063772 -0.006351
-0.038858 0.033743 0.065499
-0.022208 -0.061496 -0.039770
0.042710 0.053023 0.052235
0.059697 -0.027708 0.006534
0.019567 0.030970 -0.062254
-0.024320 0.034145 0.065544
0.015393 0.066136 -0.030121
0.040539 0.023087 0.002732
-0.022434 0.024932 0.000539
-0.027017 0.062001 -0.045956
-0.006165 -0.036985 0.065601
0.024465 -0.049563 -0.062254
0.067211 -0.003187 0.033857
-0.057418 0.034215 0.012962
-0.055355 0.037861 -0.009095
-0.035523 -0.030758 -0.062254
0.054439 0.018724 0.065533
0.012707 0.066260 -0.010035
0.032612 -0.018393 -0.062202
-0.027441 -0.030508 -0.062254
0.037168 0.055916 -0.014185
-0.050937 0.043598 0.003463
0.000344 0.003913 0.000503
0.047283 -0.046315 0.065437
0.053287 -0.040446 0.034073
0.026878 0.001376 -0.062248
-0.021328 0.010346 -0.062254
-0.023876 0.008658 0.002690
0.066674 -0.002286 0.012358
-0.024641 0.063419 0.064256
-0.033046 0.058575 0.014176
0.067227 0.011016 0.064915
-0.026381 0.012069 0.065576
0.042374 -0.002373 0.065549
0.027299 -0.059491 -0.042985
-0.003847 -0.065455 0.061590
0.014551 -0.064129 0.046814
0.007097 -0.045875 -0.062254
-0.058765 -0.029096 0.030729
0.001785 -0.010322 0.000516
-0.000626 0.068403 0.052820
-0.006122 0.061963 0.002774
-0.048517 -0.033544 0.000504
-0.029599 0.038738 -0.062243
-0.059283 -0.029434 -0.062252
-0.044016 -0.025747 0.002729
0.027833 -0.059780 0.059381
0.065216 -0.016213 -0.031215
-0.054519 0.027430 0.002700
0.036693 -0.003982 0.000493
0.024449 0.043648 -0.062254
-0.050167 0.046204 -0.045680
-0.012570 -0.022414 0.065601
0.032959 -0.057026 -0.030972
-0.025781 0.031073 -0.062252
-0.022720 -0.003566 0.000507
-0.048561 0.046302 -0.009790
-0.025785 0.060247 0.000562
-0.020375 0.000479 0.065570
-0.059998 0.011519 -0.062228
0.024648 0.032534 0.000570
0.061039 -0.026567 -0.016301
0.015138 -0.005120 -0.062250
0.010274 -0.064860 0.039569
-0.050200 -0.017307 -0.062235
0.055723 -0.037164 0.044410
0.002893 -0.022846 0.065601
0.043790 -0.031040 0.000509
-0.063278 0.023621 -0.046602
0.067709 -0.006145 0.058782
-0.025460 -0.059933 0.025564
0.003108 0.038968 0.000598
-0.028689 0.027834 0.065540
0.067780 0.005404 0.053063
0.038407 0.054597 -0.001427
0.017400 0.044713 -0.062254
0.022745 -0.055454 0.065567
0.059415 0.033275 -0.055719
-0.001636 0.045917 0.002649
0.018115 -0.063144 -0.052502
-0.060715 -0.014537 -0.062215
-0.054483 0.013088 0.000484
-0.052510 -0.039067 -0.017383
0.058213 0.034642 0.039855
0.049170 -0.044974 -0.037224
0.066760 0.009401 0.030286
-0.066222 -0.010989 0.060319
0.004604 0.038195 0.065506
-0.066213 0.001342 0.016812
-0.056984 -0.013041 0.065487
0.027465 -0.058575 0.022420
0.054856 -0.036695 0.005824
0.020355 0.045929 0.000528
0.063117 0.021028 -0.029095
0.004824 -0.058193 0.065601
0.035551 0.056528 0.065465
0.048051 0.020374 -0.062252
-0.022225 -0.058322 0.000377
-0.022869 -0.061878 0.060790
0.015508 -0.063449 -0.035025
-0.033718 0.052144 -0.062230
0.031242 0.048697 0.002792
-0.061537 -0.024616 0.063127
0.029834 -0.043376 0.065527
0.064189 0.018274 0.034998
-0.034640 -0.055438 -0.032994
0.065691 -0.010988 -0.003214
-0.009549 -0.064265 -0.006815
-0.060828 -0.020455 -0.000063
-0.013930 0.066831 -0.062254
-0.038014 0.047746 0.000633
-0.030531 -0.048116 0.065601
-0.014609 -0.063062 -0.012934
-0.046466 0.009759 0.065500
0.034881 0.058216 0.038526
-0.024777 0.043037 0.002631
0.038901 -0.053750 -0.031849
0.059510 -0.031365 0.046473
-0.007251 0.028293 -0.062254
0.066518 0.010482 -0.022551
-0.057068 0.035603 -0.021835
-0.028272 -0.059237 -0.040943
-0.066424 0.004954 0.023713
0.048542 0.038315 0.065587
0.010835 -0.058045 0.000516
0.037849 -0.047604 0.000506
0.067135 -0.005481 -0.062181
-0.066880 0.011655 -0.055586
-0.017139 0.010293 0.002694
-0.064273 -0.013102 0.026595
0.039594 0.032766 0.065576
0.060649 -0.027851 0.032879
-0.064648 -0.004251 -0.062201
-0.016356 0.034581 0.000584
0.004002 -0.023354 0.000448
0.044937 0.050318 0.022557
-0.015848 0.065439 -0.029854
0.020003 0.065125 0.047104
0.020089 0.064213 0.014443
-0.004888 -0.036587 0.000421
-0.028382 -0.045980 0.002820
0.059877 0.028231 -0.010013
-0.052957 -0.040223 0.065128
-0.031564 -0.057046 0.025933
-0.067308 0.000611 -0.047814
-0.045890 -0.046058 0.010535
0.006849 0.067174 0.018241
0.067183 0.009444 -0.048437
-0.015836 -0.017998 0.002757
0.035640 0.039797 0.002709
0.048106 -0.036833 -0.062254
0.009140 -0.049641 0.000491
0.041077 -0.044037 0.065544
-0.008626 -0.065264 -0.055902
-0.012786 -0.000734 0.000506
0.039671 -0.053556 0.046736
-0.041152 0.055207 -0.060730
0.029947 -0.014855 0.065592
-0.039104 0.055225 -0.016815
-0.008847 0.067637 0.045830
0.021981 -0.061297 0.043090
-0.012653 0.047384 0.000622
-0.045107 0.023971 -0.062212
0.018971 0.065459 -0.043793
0.061622 0.027047 0.049472
0.015543 -0.063233 0.032351
-0.066697 0.008534 0.040952
0.015141 0.066181 0.032722
0.032301 0.059443 -0.024957
-0.034237 -0.054825 -0.007890
0.067089 0.008885 -0.039796
-0.031008 0.027533 -0.062246
0.039942 -0.019050 0.002737
0.013407 -0.015755 0.000473
0.007492 -0.064061 0.000383
-0.044791 0.050699 -0.028915
0.044186 0.050994 -0.016134
-0.010719 0.053529 -0.062254
0.031496 -0.015527 0.000471
-0.037425 0.027272 -0.062235
-0.061785 -0.003689 0.000501
-0.042291 -0.011627 0.065551
-0.012624 -0.063453 0.006644
0.046176 0.045836 0.065548
-0.014603 0.066378 -0.043359
-0.040758 -0.052090 -0.057525
-0.003207 0.025727 0.065525
0.017754 0.009460 0.000499
0.044369 0.051008 0.030155
0.059185 0.030771 -0.015796
-0.013584 0.064626 0.065540
-0.028866 -0.023664 0.000520
-0.017350 0.065600 -0.049180
0.024841 -0.031536 0.065573
-0.060116 -0.024012 0.018639
-0.013212 -0.064444 0.060807
-0.063662 -0.018753 0.064826
0.065080 -0.016901 0.039661
-0.012590 0.001907 -0.062254
0.047328 0.010493 -0.062243
0.027685 0.000324 0.065601
0.011364 0.067206 0.043183
0.051962 -0.041398 0.020684
0.020158 0.045060 0.065454
0.042952 0.022926 0.065601
