0.030720 0.027061 0.000693
-0.076101 0.073979 0.035831
-0.016517 0.016276 -0.099513
-0.040699 -0.000046 0.104703
-0.044527 -0.097416 -0.013086
0.082286 -0.066585 0.079783
0.091299 -0.052734 -0.077289
-0.098403 0.042892 0.019994
0.086675 0.060646 0.097211
-0.014255 0.106987 0.081479
0.062072 0.085994 -0.066585
-0.058213 0.082612 -0.099486
-0.059615 -0.092202 0.097916
-0.102133 -0.039544 -0.098722
0.100663 -0.025143 -0.018610
0.029150 -0.103989 -0.086972
-0.106892 -0.016207 0.037100
0.098030 0.034963 0.041371
0.034585 -0.100346 0.031541
-0.025444 0.103524 -0.013935
-0.106931 0.018993 -0.067545
0.051214 -0.018262 0.104832
-0.051494 -0.020036 0.000945
0.053132 0.090657 0.029019
0.099296 0.034009 -0.087839
-0.086955 0.065958 0.102447
-0.038171 -0.076113 -0.099479
0.055536 -0.016437 -0.099513
-0.059261 0.005929 0.104689
0.022857 0.057989 0.104810
-0.085695 0.064601 0.018652
0.007832 -0.108064 0.103003
0.096195 0.036607 -0.012952
-0.106759 0.024342 0.101882
0.036376 -0.050951 0.000815
0.019630 0.084362 0.104675
-0.061116 0.081835 0.104711
0.079555 -0.020997 0.104864
-0.093906 -0.053558 -0.028890
-0.045620 0.096717 -0.022937
-0.001307 -0.106653 -0.017822
-0.009700 0.107730 -0.087449
0.048386 0.051056 -0.099513
-0.064401 -0.087145 0.039917
-0.063283 0.085630 0.045429
-0.046985 -0.010895 -0.099513
-0.102086 -0.039589 0.093630
-0.010561 -0.048962 0.104806
-0.037623 0.036597 0.000816
0.059455 -0.085427 -0.025765
-0.093887 0.041697 -0.099513
-0.089628 0.060366 -0.045888
0.072882 -0.075220 0.064688
0.049966 0.092014 -0.011796
0.097049 0.016481 0.104864
0.058092 -0.074902 -0.099439
-0.071643 -0.081312 -0.062978
0.099661 0.031010 -0.057244
0.079983 0.019567 -0.099513
0.087788 -0.055710 0.009423
-0.107219 -0.002513 -0.010800
0.103346 0.001468 0.021545
-0.009172 0.106252 0.037402
-0.090049 -0.059438 0.047484
-0.038526 -0.101845 0.072675
0.013178 0.072244 0.004378
0.058258 -0.073231 0.104701
0.049967 0.094129 0.074622
0.008104 -0.040449 -0.099513
0.071255 0.048763 0.004413
-0.028711 0.032704 -0.099513
0.063751 -0.006376 0.000678
0.030263 0.101559 -0.018109
-0.022609 -0.106072 -0.074156
0.072527 0.074589 -0.053413
0.006612 -0.079567 0.000774
0.105051 0.003481 0.085017
-0.094573 0.011865 -0.099513
0.098771 -0.034027 0.042181
-0.061488 -0.069913 0.004204
-0.006405 -0.006953 0.004342
-0.091991 0.057126 0.052014
-0.023724 0.047238 0.104864
0.055813 0.042460 0.104864
0.103241 -0.019199 -0.073252
0.076957 0.068532 0.038339
-0.070989 -0.033736 0.104811
0.102364 -0.020603 0.066116
0.035135 0.098909 -0.099471
0.003359 0.069230 -0.099414
-0.065512 0.035677 0.104821
0.029762 0.103566 0.083680
0.006223 -0.005607 0.104788
0.030578 0.102549 0.059197
-0.061594 -0.049476 -0.099513
-0.107966 -0.014285 -0.062416
0.009272 -0.062691 -0.099494
-0.060652 0.003582 0.004293
0.095649 0.043385 0.059225
0.069621 -0.076265 0.025177
-0.106001 -0.021979 -0.028747
0.023370 0.104360 -0.060075
0.020439 -0.000821 -0.099513
-0.028263 -0.103792 0.025223
0.073158 0.013626 0.000690
-0.106676 0.018758 0.056387
-0.054427 0.026359 -0.099513
0.014737 -0.106445 0.059407
0.039391 -0.100229 0.084866
-0.052375 0.094688 -0.064809
-0.023618 0.076308 0.000789
0.084627 -0.061479 -0.025629
-0.011700 -0.043478 0.004280
-0.002543 -0.089951 0.104623
0.030757 0.015649 0.104864
-0.071747 -0.058546 0.104758
0.002389 -0.005762 -0.099513
-0.086656 0.065775 -0.088288
-0.088671 -0.061964 -0.061567
0.098121 -0.033871 0.019051
0.077412 -0.057740 0.104775
-0.053210 -0.049918 0.104816
-0.082833 -0.066426 -0.019815
-0.100001 -0.039317 0.008687
0.058363 0.021330 -0.099504
-0.027725 0.103702 0.044877
0.023510 -0.056706 0.104782
0.032198 -0.101803 -0.044769
-0.009696 0.038557 0.004452
-0.020101 0.089163 0.104680
0.014242 0.104922 0.022477
0.082660 0.063682 -0.099511
0.022777 -0.103541 0.010735
-0.101418 0.037634 -0.066251
-0.105308 0.022174 -0.032065
-0.108757 -0.006589 0.077885
-0.066763 -0.014838 -0.099513
0.065221 0.082050 -0.037420
-0.086944 0.062907 -0.014467
-0.022717 0.078993 -0.099444
-0.059767 0.090586 0.087213
-0.020339 -0.105754 0.040119
0.081965 -0.046370 -0.099508
-0.001599 0.106681 -0.029833
-0.055629 -0.094650 -0.095061
-0.100190 -0.043751 0.075388
-0.062421 0.055730 0.004384
0.101372 0.021727 0.012875
0.001096 -0.098879 -0.099486
-0.075943 -0.073881 0.018155
-0.063388 -0.088739 0.073293
0.070296 -0.077626 -0.063211
0.039990 -0.086949 0.004386
0.100937 -0.029942 0.085974
0.002505 -0.107326 -0.046176
0.048763 -0.058944 -0.099488
0.104118 0.000320 -0.039376
-0.107671 0.003332 0.023306
-0.028511 -0.082753 0.000925
-0.033085 -0.048966 -0.099513
-0.045853 0.096097 0.013113
-0.047408 -0.097294 -0.051326
0.077730 0.069605 0.075948
-0.080063 0.027747 0.000879
0.083348 -0.011073 -0.099513
0.028577 -0.024226 0.000822
-0.098112 -0.009084 0.104665
0.060644 0.024991 0.104864
-0.001796 -0.106605 0.025520
0.002536 0.106730 0.052547
-0.083145 -0.013900 0.000777
0.104256 -0.010571 0.052526
0.045436 0.065065 0.000834
-0.028669 -0.105421 -0.091442
0.090402 0.050319 -0.005216
-0.041478 -0.049424 0.000939
-0.031896 -0.075000 0.104710
-0.001678 0.022296 0.104864
0.064784 -0.039205 0.004395
0.103293 -0.006345 0.000383
-0.085218 -0.067643 -0.095961
-0.071364 -0.047116 0.004293
0.067005 -0.077912 -0.005657
0.024868 0.029418 -0.099475
-0.028640 -0.028358 0.104793
0.042459 0.068708 0.104758
0.008838 0.011701 0.004416
-0.014955 0.106632 -0.058468
0.057960 -0.089140 -0.079254
0.067986 0.077328 -0.006333
-0.027160 -0.104432 -0.036244
-0.036068 0.015526 0.000835
0.033665 -0.095561 -0.099394
-0.073683 0.046844 -0.099513
-0.025474 -0.105959 0.087256
-0.025168 0.104633 -0.048539
0.096145 -0.043672 0.094613
-0.064578 0.082721 -0.000718
-0.006793 0.105691 0.000169
0.046016 -0.041995 0.104836
0.094492 -0.044508 -0.041802
0.091251 -0.049366 -0.005932
-0.104668 0.020731 -0.001265
-0.098233 0.045439 0.074433
0.104297 0.009548 -0.067470
0.045750 0.003779 0.004475
-0.039283 0.101223 -0.090496
-0.100134 0.039532 -0.028683
0.009136 0.108048 0.103008
-0.083390 -0.068442 0.076063
-0.044695 0.098263 0.061627
-0.100377 -0.012573 -0.099513
0.011195 0.044660 -0.099464
0.092845 0.047237 -0.038271
-0.101910 -0.037145 0.055388
-0.107733 0.011074 0.038665
0.058538 0.088198 0.053020
0.048373 0.094331 0.104624
-0.019870 -0.090796 0.000898
0.099630 0.032164 0.091534
0.093606 -0.047356 0.062676
-0.056525 0.091501 -0.039232
-0.019035 -0.012561 -0.099513
-0.041273 0.061537 -0.099496
0.034809 -0.080940 0.104634
-0.028489 0.102634 0.016755
0.038157 0.098975 -0.041952
-0.031164 -0.005496 0.000841
0.011526 -0.054616 0.000792
-0.100385 -0.041868 -0.058530
0.086367 -0.059183 0.034226
0.018200 0.094406 0.004421
-0.060352 -0.089014 -0.002783
0.007114 -0.107890 0.087430
0.036872 -0.100359 0.058887
-0.106937 0.020899 -0.084782
-0.072613 0.078850 -0.071029
0.083109 -0.021211 0.000649
0.032668 -0.030461 -0.099513
0.095937 -0.008513 0.104864
0.036915 -0.099120 -0.018627
-0.042565 0.100429 0.103716
-0.081797 -0.045180 0.104863
-0.050526 0.052977 0.104864
-0.072519 -0.079021 -0.037571
0.058111 -0.087276 0.045931
0.077452 -0.072620 -0.090766
-0.019148 0.010615 0.104807
-0.088546 0.043966 0.104807
0.081077 0.063465 -0.025292
0.053411 -0.092488 0.072728
-0.091939 -0.021941 0.104741
-0.000885 0.047730 0.104864
0.045319 0.052061 0.000789
0.070974 0.060835 0.104815
0.019790 -0.030698 0.104818
0.078516 0.065292 0.009522
0.012305 0.107423 -0.097180
0.084634 0.062051 -0.076038
0.036028 0.072896 -0.099513
0.037843 0.086131 0.004403
0.006783 -0.033641 0.004317
0.040379 -0.099379 -0.066950
-0.101859 -0.038701 -0.073737
0.049878 -0.066375 0.000819
0.104269 0.017102 -0.095632
0.030723 -0.076286 -0.099458
0.058735 0.089314 -0.098776
-0.104790 -0.022189 0.000601
0.043186 0.097515 -0.077575
0.100412 0.028147 0.064880
-0.004664 -0.054624 -0.099509
-0.013233 -0.106787 0.057281
-0.108536 0.000647 -0.051458
-0.015724 -0.092182 -0.099403
-0.002288 -0.108319 -0.083527
-0.028478 0.024057 0.104851
-0.084943 0.012347 0.104659
0.073340 -0.073620 0.038712
-0.076050 0.075315 0.063944
0.075098 -0.031805 -0.099513
0.072031 -0.002126 0.104864
-0.069447 0.079473 -0.023299
0.034674 -0.011004 0.004409
-0.097741 -0.046077 0.030482
0.070853 -0.076243 -0.043457
0.013254 0.088901 -0.099477
-0.036698 0.101898 0.083100
-0.038827 0.062644 0.000808
-0.067786 0.025919 0.000901
0.055460 -0.088315 0.017411
-0.050433 0.049833 -0.099513
-0.027760 -0.025547 0.000851
-0.036765 0.003181 -0.099513
0.102198 0.019907 -0.030594
0.069656 0.043621 -0.099513
-0.088325 0.010275 0.000739
-0.038990 0.072464 0.104749
0.033385 0.100719 0.037952
-0.107990 -0.010856 0.058555
-0.097170 0.044773 -0.003457
-0.002380 -0.099762 0.004351
0.000139 -0.026105 -0.099513
0.034982 0.099405 0.017129
-0.069623 0.009431 -0.099513
0.085226 -0.061925 -0.055850
-0.018906 0.015030 0.004364
-0.013113 -0.067049 0.000840
0.055305 -0.090087 -0.048586
-0.006590 0.070603 0.104759
-0.079183 -0.074260 0.096580
-0.017806 0.051415 -0.099491
0.086278 0.059008 -0.053063
-0.044769 -0.028166 0.104788
0.044139 0.003244 -0.099500
0.102737 0.016572 0.038242
0.027204 0.038243 0.104864
-0.061173 -0.074227 -0.099487
-0.072267 -0.077568 -0.003546
-0.085395 0.067163 0.080379
0.103918 0.008892 0.054287
-0.031491 -0.097185 0.104608
0.024729 0.104911 0.096948
-0.082639 -0.069807 -0.081359
-0.101288 -0.036226 -0.013290
0.024968 0.057420 0.000783
0.010593 -0.107457 -0.067067
0.063715 0.030230 0.000736
-0.050491 -0.096576 0.082799
-0.025317 -0.028762 -0.099513
-0.052139 -0.069524 0.104726
-0.001881 0.056039 0.004387
0.067697 0.077977 0.017904
0.102963 -0.023407 -0.094572
0.100163 -0.030982 -0.054267
0.011327 0.107149 -0.078585
-0.031638 0.103241 -0.072525
-0.052781 0.094855 -0.082251
0.069527 0.079781 0.093741
0.104851 0.000512 -0.083806
0.096261 0.037827 0.009716
0.067539 -0.080935 0.087704
-0.062456 0.085378 0.023719
-0.047102 -0.096373 0.021704
0.015041 -0.090567 0.104584
-0.095665 0.051233 -0.079458
0.068664 -0.054540 0.000840
-0.041071 -0.099638 0.039379
0.094534 0.046970 0.078641
-0.042260 -0.100237 -0.070442
0.081167 0.025161 0.004557
0.027007 -0.070328 0.000797
0.090272 0.052189 0.030826
-0.042054 0.085565 0.000799
-0.035411 -0.100702 0.004387
-0.011514 -0.011771 0.104715
-0.019881 0.100152 -0.099381
0.051674 -0.094102 0.099936
0.033926 -0.005652 0.104853
-0.109854 0.002776 -0.098616
0.005597 0.024071 -0.099504
-0.024029 0.050868 0.000815
0.086388 -0.061564 -0.090766
0.017543 0.104979 -0.039676
0.079770 0.042074 0.104864
-0.033329 -0.054032 0.104779
0.078181 0.018246 0.104864
0.051002 0.029330 0.004535
-0.023489 -0.059751 -0.099504
-0.070477 -0.024437 0.000939
-0.107960 0.002413 -0.029783
0.023906 -0.105214 0.075480
0.014350 -0.086141 -0.099455
0.019540 -0.051502 -0.099510
-0.013461 -0.107110 -0.054336
-0.024219 0.105241 0.064234
0.005791 -0.065675 0.104746
0.093751 0.047636 -0.067528
-0.057580 -0.031160 -0.099513
-0.012302 0.107492 0.104311
0.048179 0.005310 0.104864
-0.102869 -0.033938 -0.045450
0.083756 -0.038391 0.000720
-0.064618 -0.086637 -0.020925
0.103932 -0.005638 -0.021461
0.011284 0.037315 0.104864
-0.010880 0.084007 0.004399
-0.055231 0.039116 0.004355
0.013845 -0.105737 -0.006093
0.053329 -0.025230 0.000810
0.051192 -0.037136 -0.099513
-0.005951 -0.074372 -0.099470
-0.078082 -0.031006 -0.099513
0.070715 -0.041110 0.104840
0.064233 -0.055042 -0.099489
-0.077155 0.045245 0.004338
0.023263 -0.020245 -0.099513
-0.000888 0.086985 0.104675
-0.101651 0.036805 0.056586
-0.089200 -0.058928 0.019481
-0.028481 -0.104498 0.054123
0.086919 0.002878 0.004564
0.055496 0.090314 -0.051052
0.047990 0.092889 0.010079
0.015537 -0.106014 0.039995
0.094741 -0.033158 0.104862
0.100576 -0.022364 0.000573
0.091964 0.046637 -0.099513
0.101565 0.020508 -0.011766
-0.050444 -0.056456 0.000986
-0.106479 0.022228 0.075112
-0.104195 0.024480 0.018414
-0.069708 0.052098 0.104864
-0.105842 -0.026679 0.073255
0.011165 0.107153 0.080439
0.098815 -0.036820 -0.083736
-0.090757 -0.061492 0.101757
-0.025850 -0.060254 0.000886
-0.094061 -0.055476 0.082753
-0.048805 0.095881 0.041758
0.006076 -0.039812 0.104860
0.011482 0.105665 0.038595
-0.092087 -0.057173 -0.043562
-0.097293 0.046670 -0.050271
0.036913 -0.101347 0.104621
-0.106325 -0.025604 -0.085871
0.075009 -0.068555 0.000839
-0.010479 -0.030127 0.104807
0.014589 -0.106243 -0.027910
-0.078547 -0.072771 0.054129
-0.076842 0.073934 -0.044049
-0.087141 0.064522 -0.069609
-0.084311 -0.008217 -0.099513
0.026410 0.003860 0.004433
-0.061150 -0.018430 0.104728
-0.065465 -0.087497 -0.081262
0.001042 -0.108092 0.070650
-0.077111 0.028798 -0.099513
-0.001530 0.088986 -0.099407
-0.062543 -0.089008 -0.053305
-0.019262 -0.104968 0.007758
0.094427 -0.046533 0.080197
-0.090221 -0.028370 0.000697
0.054362 0.068443 -0.099513
0.071341 0.077277 -0.079735
-0.036888 0.100311 0.028291
-0.041319 0.099552 -0.053594
0.102601 -0.016770 -0.034646
-0.062931 0.065044 -0.099507
0.069573 0.078162 0.063072
-0.051908 0.006577 -0.099513
0.103204 -0.012679 0.030420
0.104486 -0.004538 -0.056128
-0.073111 0.068417 0.004366
-0.072967 0.079172 0.089341
-0.075520 0.077547 -0.098519
0.001818 -0.107348 0.043196
-0.050434 0.021755 0.000889
-0.069604 -0.084345 0.085357
-0.016240 -0.077098 0.104701
-0.048584 0.029991 0.104833
0.098271 -0.004045 -0.099513
-0.065032 -0.086140 0.018663
-0.009036 -0.107734 0.080713
-0.081952 -0.009605 0.104672
0.012225 -0.107768 -0.084432
0.024494 0.043334 0.004465
-0.103678 -0.030493 0.036424
0.060550 0.086011 -0.021051
-0.012692 -0.106379 -0.031287
0.016896 -0.106546 -0.052758
-0.023337 0.098153 0.000759
0.057625 -0.086053 -0.004036
-0.046773 -0.095742 0.104622
0.058556 0.089068 0.088603
-0.093679 -0.051982 0.004371
-0.028541 0.104452 0.104579
0.062759 0.065464 0.004373
-0.051438 -0.095651 0.065399
-0.095426 0.052500 0.088215
0.011553 -0.018728 0.000810
0.033058 0.014070 -0.099495
-0.052014 -0.094487 -0.027900
0.038943 -0.035043 0.004354
-0.105745 0.004043 0.004651
-0.001168 0.107441 -0.062789
0.091845 -0.049984 0.043828
0.011106 0.105644 -0.018146
-0.050097 -0.005422 0.000921
-0.008276 0.033249 -0.099504
-0.098955 -0.008621 0.004550
-0.063734 0.086245 0.067900
0.023967 -0.039768 0.000810
0.031916 0.046719 -0.099449
0.070252 -0.022452 0.000716
0.095169 0.046620 0.092764
0.053683 -0.055329 0.104783
-0.092743 0.054841 -0.028523
0.102809 0.020231 0.080157
-0.007351 -0.023822 0.004315
0.090109 0.052092 -0.019322
0.092680 -0.047134 -0.020507
0.103016 0.021967 -0.076843
-0.045324 -0.033048 0.000935
-0.053723 0.070397 0.000840
0.004520 0.043368 0.000749
0.075177 0.004970 -0.099513
0.038752 -0.028552 0.104810
0.016508 -0.091045 0.000777
-0.101607 0.035133 -0.007272
-0.038900 0.072107 0.004373
-0.008257 0.008281 0.000807
0.092013 0.032276 0.104864
0.098041 -0.036548 -0.099490
-0.106681 -0.025551 0.103771
0.097568 -0.039404 -0.066594
0.059365 0.088428 -0.082275
-0.033993 -0.092071 -0.099423
0.018825 0.103879 -0.006660
-0.088261 0.056895 0.000807
0.032441 -0.100410 -0.002833
-0.012307 0.034714 0.104864
0.061689 0.084179 0.006109
-0.106171 0.016232 -0.016828
0.037899 0.097985 -0.005213
-0.074817 -0.058658 -0.099513
-0.103870 0.029314 0.042865
0.028929 0.073394 0.004381
-0.052861 0.093132 -0.008811
-0.009078 0.066044 0.004367
0.082419 0.062674 -0.039496
-0.104532 0.027715 -0.047259
-0.000192 0.095929 0.000792
0.008081 -0.003068 0.004373
0.105227 -0.009991 0.093928
-0.027578 -0.008498 0.104693
-0.073488 -0.006356 0.000923
0.015811 0.025192 0.000773
-0.003990 0.054596 -0.099467
-0.026330 -0.041763 0.000865
-0.093947 -0.052844 -0.012964
-0.016909 -0.011883 0.000788
0.086394 -0.060728 0.063810
0.005762 0.083516 0.004398
0.020359 0.070506 -0.099460
-0.092725 -0.056877 0.062876
0.040658 0.030526 -0.099445
0.078623 0.065852 0.022837
-0.102859 0.028716 -0.099300
0.007417 -0.106093 0.008293
-0.031933 0.102095 -0.028595
-0.033609 -0.103585 -0.053141
-0.053358 0.094828 0.100682
0.089256 0.055406 0.066313
0.055649 0.058035 0.104813
0.079475 -0.070683 0.094548
-0.034525 0.058458 0.104828
-0.006177 0.003269 0.104802
-0.015748 -0.105540 -0.012336
0.051281 -0.044376 0.004354
0.008174 0.070172 0.104763
-0.001104 0.105630 0.014479
-0.066903 0.083235 -0.057455
0.105432 0.003651 0.104328
-0.012767 0.106498 0.054740
0.043069 -0.097334 0.045225
-0.061391 0.038687 -0.099513
-0.075483 -0.063710 0.000869
-0.079255 -0.070870 0.032649
-0.037185 0.080248 -0.099465
0.084035 -0.063962 -0.070168
0.098446 -0.034820 -0.029982
-0.053305 0.094256 0.074304
0.104674 0.003423 0.069970
-0.048613 -0.095169 0.005253
0.048742 0.093505 -0.033149
-0.073979 0.002255 0.104636
0.001396 -0.021154 0.104758
0.023247 -0.054105 0.004306
-0.105312 -0.027483 -0.056178
0.093764 -0.045417 0.032363
0.042011 -0.096876 0.019611
0.077761 0.066271 -0.006685
0.059538 0.055810 0.000820
-0.061787 -0.036139 0.004231
-0.095929 -0.052784 -0.096798
-0.019752 0.000306 0.004338
-0.023082 0.034349 0.000807
0.103797 0.000856 0.036064
-0.041608 -0.079395 0.000977
-0.015547 0.106060 -0.037597
-0.026148 0.105350 -0.087195
-0.000254 -0.061162 0.004266
-0.092835 -0.024959 -0.099513
0.042370 -0.097496 -0.036418
0.027306 -0.103977 -0.062868
-0.008954 0.026841 0.000815
-0.108926 0.012295 0.094297
-0.076109 -0.077713 -0.091439
0.068327 -0.078559 0.051004
-0.023128 0.063659 0.004362
0.088929 0.004728 0.104864
-0.091918 -0.059086 -0.080247
-0.040486 0.086856 0.104694
0.055655 0.013231 0.004524
0.068805 0.066477 -0.099513
-0.076669 0.027059 0.104752
0.068013 -0.080675 -0.086456
0.048217 -0.010020 0.000769
0.071046 0.029681 -0.099513
0.032035 -0.062382 -0.099487
0.030427 0.093189 0.104794
0.071624 -0.073864 0.010771
-0.003214 -0.107967 -0.065508
-0.099854 0.040395 0.035605
0.058581 -0.005363 0.104864
-0.071838 -0.082906 0.103648
0.039763 0.099357 0.092213
-0.019753 -0.074220 -0.099476
-0.068668 -0.084333 0.061340
0.018956 -0.010885 0.104792
0.060261 0.087258 0.067558
-0.012075 0.105752 -0.016273
-0.011137 0.056896 0.104829
-0.042938 -0.100551 -0.093333
0.013258 0.106259 0.061123
-0.092840 0.056158 -0.059140
0.047403 0.019014 0.104864
-0.096345 -0.050898 -0.068008
-0.102953 0.034683 -0.086999
-0.082462 -0.068455 -0.051260
0.098947 0.033935 0.076444
-0.016734 -0.107579 -0.097685
0.020420 -0.078054 0.104675
-0.005680 -0.108548 0.101403
0.091744 -0.051081 -0.062716
0.074575 0.073950 0.104715
-0.063964 -0.014001 0.004262
0.073449 0.073134 0.050614
0.046363 0.018249 0.000674
0.044783 -0.071864 -0.099489
0.017339 0.012267 -0.099509
-0.037506 -0.023132 -0.099513
0.084211 0.040051 0.000795
0.038828 0.081616 0.104763
-0.056994 -0.093168 -0.064772
-0.045492 -0.036832 -0.099513
-0.045901 0.052527 0.000831
0.006030 0.106746 -0.046128
-0.074998 -0.021038 0.104740
0.080369 0.066263 -0.064164
-0.094951 0.036454 0.004498
-0.085187 -0.064532 -0.034940
0.066069 0.082972 0.079542
0.087567 -0.044301 0.104819
-0.048373 0.063110 0.104797
-0.085527 0.066337 0.061745
0.057963 -0.036315 0.104857
-0.020878 0.105139 0.031350
0.028919 0.104007 -0.089005
0.019031 -0.010420 0.004376
0.102645 0.020367 -0.050058
0.095785 0.040610 0.027832
0.092726 -0.038087 0.000676
0.018864 -0.106543 0.096021
0.100567 -0.028105 -0.041057
-0.065761 0.083648 -0.044390
0.044015 -0.098121 -0.079478
-0.008364 -0.087790 0.004256
0.035013 0.101031 -0.065017
-0.036655 0.049307 -0.099506
-0.037659 -0.102811 0.090750
0.022581 -0.043453 0.104835
-0.103558 -0.029319 0.016279
0.015318 0.057012 -0.099421
0.001594 -0.046204 0.000787
0.094166 0.047786 -0.086750
-0.109544 -0.003730 0.101557
-0.035046 0.096489 0.000775
-0.081773 0.068753 -0.024804
0.044483 -0.088449 -0.099418
-0.062567 -0.088670 -0.040425
-0.006745 0.104046 -0.099424
-0.039620 0.017626 0.104793
-0.061462 -0.057396 0.004198
-0.005370 -0.070408 0.104728
0.078704 -0.069449 0.049510
-0.107627 0.011088 -0.039127
0.001152 0.107229 0.072553
0.099370 0.018581 0.000619
-0.016127 -0.079615 0.000868
-0.045528 -0.051593 -0.099513
-0.107658 0.012841 -0.056487
-0.023866 0.005952 -0.099513
-0.098979 -0.048048 0.102521
-0.041270 0.098979 -0.036551
0.025044 0.104350 -0.072614
0.079104 -0.067938 0.024331
-0.013232 -0.056025 0.004259
0.043737 0.082911 -0.099513
-0.027410 0.105228 0.092025
0.100918 -0.021822 0.022029
-0.042631 0.091612 -0.099450
-0.107939 -0.004263 0.040985
-0.010278 -0.043352 -0.099513
-0.015489 -0.060544 0.104762
0.066230 0.013712 0.104864
-0.108601 0.009193 -0.080508
-0.108399 -0.014609 -0.080152
-0.094197 0.051496 -0.016499
-0.060273 0.087221 -0.016982
0.069540 -0.079914 -0.099119
-0.078327 0.074483 -0.085036
0.092615 0.014925 -0.099513
0.059364 -0.073653 0.004354
-0.026557 0.073358 0.104747
0.065256 0.019629 0.004564
0.092777 0.048566 -0.051066
0.021207 0.098486 -0.099513
0.098619 -0.037095 0.067622
-0.012785 0.107092 -0.070693
0.105163 -0.011600 -0.091473
0.033280 0.015558 0.004481
-0.042703 -0.043376 0.104863
-0.109361 -0.001740 0.089238
0.075804 0.030372 0.104864
0.088623 -0.056753 0.052343
-0.060329 0.086698 0.011640
0.092383 -0.051543 -0.094685
0.069850 -0.042948 -0.099513
-0.071512 0.008284 0.000924
-0.055597 0.078565 0.000830
-0.079369 -0.038475 0.000803
0.041303 0.097714 0.055696
-0.107478 -0.019583 0.083131
-0.108762 0.006570 -0.066906
-0.066131 0.084898 -0.079407
0.019884 0.104182 -0.026464
0.010957 0.106849 -0.063688
0.085321 0.014391 0.000708
-0.103927 0.027397 0.030852
0.038448 -0.064159 0.004308
0.052486 0.078322 0.000816
0.043068 -0.098960 -0.092537
-0.076855 0.072423 0.015892
0.024483 -0.103535 0.025682
-0.090469 -0.058332 0.035439
0.071535 -0.067612 -0.099473
0.014305 0.049431 0.104864
-0.056934 -0.091846 0.027016
0.067084 0.046693 0.104864
0.098873 0.003797 0.004593
-0.027234 -0.105173 0.070511
0.102706 -0.024234 0.104467
0.095034 0.040515 -0.024191
-0.058509 0.090379 -0.052928
0.091246 -0.053743 0.090642
0.008084 -0.077328 0.104691
-0.026217 0.105059 0.075930
0.025842 0.100831 0.004435
-0.105697 -0.027492 -0.073969
0.089029 -0.054601 0.023633
-0.061203 -0.062398 -0.099506
0.042086 -0.098083 -0.049908
-0.002715 0.100594 0.104634
-0.037870 -0.085192 0.104670
-0.047001 -0.098308 -0.081087
0.059359 -0.085383 0.028146
0.028856 -0.091105 0.104596
-0.102651 0.029622 0.006178
0.049820 -0.094826 0.085331
-0.011224 0.081440 -0.099412
-0.014231 -0.091146 0.104631
0.013410 -0.026642 -0.099513
0.005298 0.105598 -0.002965
-0.066318 0.084510 0.079613
-0.088826 0.029395 -0.099513
0.066675 0.083074 -0.089723
-0.039692 -0.009646 0.004298
0.043062 0.096204 -0.023262
0.082091 0.040335 -0.099513
0.087516 0.058660 0.077433
0.102577 0.015427 0.026601
0.089758 0.048151 0.104853
0.043237 -0.095952 -0.002352
-0.074199 -0.078987 -0.074143
-0.037782 -0.101295 -0.039948
0.032251 -0.101674 0.045844
0.052817 -0.004513 -0.099503
0.052580 -0.091111 -0.018298
0.034970 0.039950 0.000735
0.034032 -0.039172 0.104863
0.017958 -0.027315 0.004340
-0.078443 -0.074467 0.084660
-0.040461 -0.011631 0.104693
-0.065893 -0.087462 -0.092832
0.079222 -0.067406 -0.009881
0.060126 -0.083801 0.007874
-0.085156 0.067941 -0.099513
0.093028 -0.045822 0.012203
0.045736 -0.085419 0.104651
0.034623 0.029428 0.104864
-0.041826 0.100083 -0.076864
-0.085455 -0.062505 0.006454
0.029081 -0.087206 0.000790
-0.061433 0.086718 -0.028394
-0.037257 -0.100649 0.017693
0.092279 0.049062 0.041645
0.090585 -0.013473 0.004526
0.008293 0.061928 0.004363
-0.105414 -0.027452 0.061882
0.071439 0.035737 0.004504
0.081921 -0.051183 0.000784
0.104627 0.011934 -0.085508
-0.082194 -0.066540 -0.007864
0.016010 -0.071838 -0.099463
0.103766 0.009127 -0.048849
0.047247 -0.094382 0.009845
-0.053858 0.092789 0.023906
0.069590 0.076740 0.035666
-0.057873 -0.003023 -0.099513
-0.108669 0.011173 0.075762
-0.102501 -0.034186 -0.034176
-0.030499 -0.039484 0.104849
-0.004362 -0.108730 -0.098851
0.026190 0.103454 -0.046736
-0.009394 -0.106650 0.044017
0.016446 0.105301 0.048695
0.036270 -0.019796 -0.099513
-0.079470 0.070109 -0.010160
-0.022931 0.086914 0.004405
-0.042533 0.097501 -0.008990
0.076856 -0.071584 -0.056414
0.035512 0.058616 0.004361
-0.025288 -0.072754 0.004218
-0.093905 -0.016955 0.000642
-0.004391 0.106885 0.062855
0.004825 -0.107470 -0.057104
-0.097236 -0.047823 -0.040267
-0.051827 0.095681 -0.094594
-0.064847 -0.067317 0.104731
0.013925 -0.021214 0.104761
-0.033534 0.069505 -0.099482
-0.089945 -0.041391 0.004457
-0.058595 -0.090164 0.008121
-0.013328 0.055800 0.004397
0.077881 -0.003546 0.004526
-0.099266 -0.037206 0.104820
0.023803 0.103436 0.033107
-0.059583 0.016554 0.004315
0.042445 -0.019440 0.000836
-0.061319 0.086864 0.034637
-0.035070 0.046714 0.004419
-0.105671 -0.022530 -0.017734
0.070213 -0.021918 -0.099510
0.044358 -0.045779 -0.099513
0.049495 -0.025625 -0.099513
-0.097482 -0.046198 -0.021562
0.102370 0.020755 0.056996
0.084164 -0.062955 -0.044978
0.053055 0.011740 -0.099462
0.036887 0.043352 0.104864
-0.069453 0.080755 0.057121
0.054875 0.090177 0.042906
0.014945 -0.064399 0.004280
-0.083355 -0.051896 0.000797
-0.005403 0.106099 0.024499
0.104191 -0.001383 0.046648
-0.069700 -0.082493 0.048237
0.033127 -0.078473 0.004312
-0.024350 0.062297 0.104791
-0.037175 0.100588 0.040496
0.088079 0.055943 -0.033111
0.099991 -0.024703 0.011596
0.016676 0.100477 0.104761
-0.003286 -0.076902 0.004238
0.075792 0.072328 0.086224
0.039336 -0.050487 0.104804
0.008943 0.026769 0.104864
-0.011254 0.105509 0.010006
0.001691 0.037355 -0.099493
0.067494 0.078845 -0.025120
-0.097172 0.047487 -0.069477
-0.074058 -0.077818 -0.048160
0.074750 -0.074442 0.083064
0.006587 0.012219 -0.099513
0.072812 0.058780 0.000840
0.102957 -0.016559 -0.045384
0.057437 -0.087657 -0.036076
-0.093756 0.001028 0.000659
-0.012035 -0.107851 -0.073632
0.076039 0.069544 -0.032565
-0.088983 -0.001525 0.104623
0.103067 0.002405 -0.005560
0.050839 0.094329 -0.093572
-0.043442 -0.099215 0.059245
-0.041807 -0.062726 0.000957
0.060000 -0.087944 0.097360
-0.107450 -0.020546 -0.099337
-0.071914 -0.078882 -0.021431
-0.038344 -0.100530 0.029117
-0.015846 -0.107060 0.072559
0.094403 -0.019481 -0.099513
0.104678 -0.005442 -0.066703
0.094278 0.032566 0.000730
-0.009847 -0.064517 -0.099494
0.004930 0.100179 -0.099469
-0.058509 0.091270 -0.072729
-0.097320 -0.045595 -0.006028
0.061661 -0.086503 -0.092543
0.082935 0.052072 -0.099513
-0.017217 -0.022659 0.000802
-0.015443 -0.025102 -0.099513
-0.083140 0.068724 -0.050667
0.008691 -0.098848 0.000786
0.010183 0.052214 0.000747
-0.054055 0.093547 0.061999
0.044361 -0.004649 0.104864
-0.097819 0.045964 0.059937
-0.023885 -0.105321 -0.049650
-0.018056 0.025079 0.104864
-0.026565 -0.040772 -0.099513
-0.083831 0.069508 0.090461
0.022609 0.103240 0.016416
0.099643 0.028540 -0.018630
0.103940 0.013188 0.066336
-0.003211 -0.107291 0.052401
-0.044016 0.098997 0.074700
0.080198 -0.069356 -0.081244
-0.091677 0.058246 0.064089
-0.021159 0.106568 -0.076876
-0.089765 -0.061044 0.071949
-0.106501 0.014417 0.019543
0.055988 0.089604 -0.039467
0.022700 -0.105568 -0.071995
0.085101 -0.004881 0.104864
0.044228 0.095381 0.019430
-0.010447 0.083085 0.104707
0.043075 -0.074142 0.000810
0.044680 0.064918 -0.099513
-0.096482 0.046155 0.007551
0.098114 0.037019 -0.078077
-0.091998 0.059330 0.096419
-0.048928 0.093198 0.000809
0.007773 0.081487 0.104705
0.002723 -0.055904 0.104780
-0.048780 -0.017583 0.104726
0.089248 -0.028441 0.004480
-0.018984 -0.034648 0.000825
-0.006106 -0.108226 0.091208
-0.080538 0.072113 -0.075364
-0.056070 -0.092725 0.038141
0.024546 0.028015 0.104864
0.033645 0.056746 -0.099485
0.059838 -0.044760 -0.099513
-0.006464 0.047704 0.000783
0.053817 0.091641 -0.060995
-0.018925 -0.003158 0.104740
0.102197 -0.014336 0.006594
0.021013 -0.098780 0.104565
0.001347 0.069331 0.004373
0.018195 -0.068160 0.104733
0.035725 -0.070845 0.104702
0.000142 0.108036 -0.089839
-0.063442 0.021731 -0.099513
0.015916 0.035322 0.000728
0.045759 0.095062 0.034388
0.073742 -0.043932 0.004402
-0.028078 -0.008029 -0.099513
-0.102775 -0.032506 -0.022577
-0.072314 -0.080963 0.076233
-0.053512 -0.093438 -0.015352
-0.106900 0.021424 0.085145
0.101064 0.025768 -0.041724
-0.079424 -0.027427 0.004366
0.096894 0.040429 0.069072
-0.014661 0.040980 -0.099500
-0.072048 0.079231 0.073315
0.008711 -0.106905 -0.038335
-0.001640 -0.089253 -0.099405
0.021545 -0.041700 -0.099513
-0.107683 -0.014403 -0.052432
-0.013898 0.006476 -0.099513
-0.028950 -0.103335 0.012853
0.001159 0.106295 -0.018475
0.060448 0.087881 0.098312
0.063082 -0.082519 0.036928
0.104065 -0.016248 -0.082739
0.084253 -0.060810 -0.000036
-0.079099 0.001872 0.000857
-0.094279 0.052350 -0.038015
-0.062064 -0.046003 0.000993
0.043304 -0.098822 0.097460
-0.105316 -0.026203 -0.039739
-0.044643 0.013323 -0.099513
0.054557 0.048050 0.004432
-0.031388 -0.063739 0.104749
-0.050121 0.011867 0.000900
-0.017617 -0.107102 -0.082631
-0.088851 0.024956 0.004442
