0.027834 -0.097441 0.005706
0.141546 -0.001791 0.093859
-0.059477 0.077058 -0.130792
-0.128437 0.029527 0.137833
0.131929 -0.055417 -0.130828
0.022465 0.134400 0.019901
-0.045131 -0.117565 -0.130742
-0.009742 -0.135386 0.137673
-0.135737 -0.014379 -0.030117
0.090560 0.108764 -0.076555
0.042129 0.068065 0.137739
0.009092 0.031577 0.001064
-0.091115 0.101986 -0.030209
-0.048061 0.125711 0.137823
0.139803 0.012264 -0.018216
-0.105534 -0.093901 0.097835
0.033638 -0.138891 -0.091441
0.003530 0.137827 -0.088468
0.002898 -0.034302 -0.130828
-0.082631 -0.113189 -0.023225
0.109981 -0.089419 0.042359
0.086910 -0.063120 0.137622
0.083081 0.048459 -0.130792
-0.013096 -0.137679 0.019158
-0.119420 -0.029868 -0.130828
0.102004 0.097001 0.058669
-0.052021 -0.033678 0.000954
-0.027692 -0.046792 0.137862
-0.113002 0.077467 0.056917
0.096880 -0.104344 -0.040168
-0.135206 0.027070 -0.070955
0.072576 0.121751 0.096347
0.095866 -0.105799 -0.066023
0.082821 -0.026214 0.001276
0.086055 0.002874 0.137826
0.142653 0.015258 -0.098731
0.029367 0.116820 0.001064
-0.090496 0.040505 0.000957
-0.044454 0.130489 0.078060
-0.137049 -0.021351 0.067224
-0.016652 -0.113865 -0.130801
0.038357 0.124810 -0.130705
0.124664 -0.067903 0.036983
0.066483 -0.126312 0.104429
-0.036224 0.029148 0.137862
0.038298 0.133719 -0.018924
0.086541 0.054510 0.005550
-0.096079 -0.048960 0.137663
0.141432 0.004969 -0.075347
0.121946 0.076427 0.137326
-0.059650 0.123629 0.037273
-0.069208 -0.102031 0.137585
-0.053301 -0.131300 0.077112
-0.089776 -0.106992 0.028727
0.063634 -0.082543 -0.130828
-0.107230 -0.092322 -0.092350
-0.032231 -0.138384 -0.076024
0.059206 -0.128370 0.024013
0.004298 0.036443 -0.130828
-0.069935 0.119427 -0.095709
0.120127 0.075169 -0.043897
-0.030692 -0.097417 0.001071
-0.104249 0.089933 -0.095964
-0.021373 0.136039 -0.036110
-0.048000 -0.072672 -0.130755
0.073149 0.121130 -0.081236
-0.033601 0.087537 0.001023
0.033332 0.008885 0.137728
0.017508 0.138533 0.134337
0.076846 0.096711 0.005708
-0.086077 0.067972 0.137862
-0.136157 -0.030103 -0.078034
-0.120862 0.065007 0.096590
-0.029260 0.095463 0.137860
0.137485 -0.038191 -0.063355
0.109149 -0.092843 0.104398
-0.029774 0.136547 -0.124848
-0.125754 -0.057754 0.023454
-0.124453 0.060075 -0.126946
0.075222 -0.017035 -0.130828
-0.007704 -0.140474 0.094246
0.026424 -0.138812 -0.028942
0.137420 -0.045212 0.132706
0.130344 0.052932 0.019675
-0.054166 0.013232 -0.130774
0.010351 -0.041473 0.005724
0.089553 -0.083080 0.005902
-0.103522 0.092173 0.129242
-0.007279 -0.019608 0.005772
0.026016 -0.082043 0.137802
-0.125766 0.049947 -0.017906
-0.133738 0.019925 0.020124
-0.038255 -0.135878 0.038396
0.098117 0.099515 -0.130800
-0.121024 -0.069578 -0.030702
-0.139145 -0.017768 0.134825
0.075407 0.118580 0.048038
0.132739 0.030626 0.137601
0.128107 0.066268 -0.113217
0.139322 -0.010173 0.038531
-0.008742 0.084412 -0.130828
-0.117160 0.070252 -0.016786
0.068725 -0.030768 0.137692
-0.106325 -0.019267 0.001095
-0.042913 0.020210 0.000977
0.004852 0.137868 0.097704
-0.083682 0.010034 0.137862
0.136612 -0.036632 -0.008767
0.040661 -0.108986 0.005685
0.080150 -0.118274 -0.087919
0.048310 0.119062 0.137538
0.080166 0.035421 0.137721
0.141800 -0.013815 -0.108812
0.058539 0.017446 0.001115
0.047302 0.086560 -0.130753
-0.042940 -0.133467 -0.015124
-0.017358 -0.083998 0.137850
0.131789 0.054663 0.088634
0.005471 -0.141756 -0.107410
-0.104002 0.022850 -0.130828
-0.073550 -0.120924 -0.062355
-0.102565 -0.077372 -0.130823
0.121679 -0.075736 -0.091383
-0.063513 -0.033582 0.137850
-0.088200 -0.068550 0.001070
-0.137521 0.008813 -0.110873
0.106930 0.016312 -0.130810
-0.003751 -0.001699 -0.130828
0.026903 -0.139237 0.050580
0.099804 0.101171 0.100124
-0.121502 -0.071005 -0.067635
-0.005251 0.136662 0.049098
-0.075489 0.080234 0.005964
0.032776 0.071941 0.005649
-0.133616 0.033114 0.066530
0.130100 -0.059073 0.085254
-0.114688 -0.080391 0.066390
-0.076655 0.114360 0.101656
0.109956 0.024863 0.001303
0.053653 -0.062728 0.001217
0.017288 -0.079854 -0.130828
-0.095572 0.097763 0.046927
0.045543 -0.114723 0.137764
0.138838 0.031980 0.052195
-0.128697 -0.055805 0.107792
0.106031 -0.097468 -0.120682
-0.091420 -0.107600 0.107288
0.003833 0.096342 0.137762
0.080320 -0.115459 0.020973
-0.076613 -0.012139 -0.130768
-0.012783 -0.000420 0.137845
0.047924 -0.128207 -0.130828
-0.089696 0.105424 0.098036
0.024042 -0.141042 0.114232
0.133767 -0.016188 0.005715
-0.025937 0.128788 0.005761
0.123731 -0.068810 -0.011486
-0.072018 -0.123038 -0.105005
0.036656 0.016973 -0.130828
0.095966 -0.108129 0.124206
-0.034842 -0.136945 -0.037871
-0.043860 -0.030799 -0.130784
0.075236 0.118413 -0.034167
-0.119283 0.067678 -0.055792
-0.064127 0.121458 -0.047822
0.065403 -0.125912 -0.032798
-0.003024 0.052019 0.137776
0.021281 0.137888 -0.114412
-0.106690 0.052008 0.137862
-0.104475 0.086685 0.022288
0.137681 0.037049 -0.048477
-0.108324 -0.073201 0.137731
-0.103292 -0.092953 -0.002619
0.014921 -0.047732 0.137793
0.120042 0.076639 -0.079651
-0.136313 0.023426 0.098299
-0.052358 -0.133135 0.126823
0.096286 -0.103837 -0.013734
-0.096877 0.062110 -0.130828
0.036804 0.135042 0.071952
0.040019 0.134178 -0.062477
-0.083740 0.110857 -0.127823
0.087395 0.075879 -0.130699
-0.071319 -0.122133 0.067585
0.084936 -0.114433 0.077434
0.033337 -0.013802 0.001080
-0.129655 -0.053562 -0.104789
0.110734 0.085822 0.019963
0.140402 -0.029407 0.101921
-0.024172 0.050910 0.001092
0.097983 0.100485 -0.026101
-0.062251 0.121197 -0.002867
0.118221 -0.020326 -0.130828
-0.038625 0.043147 -0.130821
-0.023200 -0.134636 -0.130787
-0.012886 -0.079778 -0.130815
-0.077481 0.007527 0.000969
0.042345 -0.039568 -0.130828
0.076244 0.093104 0.137493
-0.020980 -0.062627 0.001070
0.083471 -0.114378 0.048338
0.053668 -0.130263 -0.012261
0.002671 -0.140013 -0.059919
0.142864 -0.007005 0.137436
0.111205 -0.019124 0.001179
-0.135547 -0.023042 0.020799
0.027820 -0.137938 0.014076
0.061967 -0.091534 0.137636
-0.056130 -0.075450 0.005751
-0.065129 -0.123726 0.014344
0.065624 0.113229 0.005790
0.070722 0.010322 -0.130828
0.040667 -0.022327 0.137621
-0.107454 -0.050078 0.001066
0.101388 -0.044572 0.137758
-0.036982 0.133340 -0.085466
0.096768 -0.064422 -0.130828
0.053708 0.050512 -0.130820
0.051961 -0.131940 -0.066729
-0.054068 0.127530 0.106453
0.131425 0.050459 -0.015288
0.126658 0.064595 0.052696
-0.134406 -0.002604 -0.005295
0.080020 0.118155 -0.105632
0.002540 0.096996 0.001084
-0.137210 -0.027835 -0.112230
-0.091338 -0.109208 -0.122748
0.139292 -0.012717 -0.033920
0.005398 -0.077999 0.001103
-0.039641 -0.137156 -0.107185
0.030839 -0.139301 0.081185
-0.010692 -0.137936 -0.016666
-0.133442 -0.037346 -0.044406
0.109509 0.058747 0.001231
-0.136348 -0.000867 -0.064811
-0.102436 -0.095702 -0.046998
-0.107278 0.012798 0.001058
0.140223 0.034832 -0.122419
-0.126675 0.050679 0.028968
0.119273 -0.077925 -0.047724
0.120739 -0.074199 0.137704
-0.106609 -0.017743 0.137740
-0.016152 0.133436 0.137736
0.048824 0.132795 -0.103099
-0.071683 0.040684 0.137862
-0.056888 -0.066574 0.137745
0.138859 -0.032116 0.060925
-0.083520 0.108872 0.073110
-0.047464 0.071872 0.005868
0.115546 -0.011116 0.137759
-0.002718 0.006482 0.005742
0.136556 -0.044697 -0.099119
-0.035487 0.066006 0.137834
0.106569 0.092951 -0.062738
0.009022 0.128051 0.001085
0.092571 0.108334 0.131159
0.048502 -0.060130 0.137645
0.111844 -0.086345 0.020405
0.058313 -0.129264 0.062602
-0.082771 -0.049462 -0.130753
-0.066527 0.119052 -0.017215
-0.073336 0.099940 0.137862
-0.013637 -0.138996 0.058784
-0.037899 -0.137443 0.106593
0.010394 0.136120 -0.047581
0.139095 0.028441 0.031426
0.097388 -0.050123 0.005743
-0.008307 -0.116621 0.005739
0.016459 0.095195 -0.130793
-0.130591 -0.047674 0.057220
0.008630 0.063892 0.005698
-0.037636 0.101504 -0.130828
0.140214 0.029278 -0.077633
0.038532 -0.100324 -0.130828
0.014975 -0.126718 -0.130828
-0.135980 -0.014865 0.043624
0.064677 0.119823 -0.130653
-0.052302 0.000612 0.137862
0.072196 -0.049960 -0.130828
0.108842 -0.092046 0.074819
0.014780 -0.095978 0.137862
0.022909 0.039669 0.137820
0.109234 0.050737 -0.130748
0.022134 0.074468 0.137772
-0.102098 0.091378 -0.059870
-0.130111 0.046282 -0.096661
-0.066257 -0.098016 -0.130681
-0.130606 0.047168 0.114494
-0.058409 -0.060071 0.001019
0.105581 0.095950 -0.101150
-0.040819 -0.009017 0.000997
0.072728 -0.123907 -0.119890
0.030768 0.007765 0.001035
-0.073283 0.037535 -0.130815
-0.022778 0.137142 0.097177
0.111304 0.017843 0.137686
0.113287 0.083340 -0.017190
-0.119007 -0.055761 -0.130820
0.081361 0.114436 0.025619
0.133478 0.005530 -0.130797
0.093686 -0.041743 -0.130828
-0.032838 -0.022729 0.137862
-0.120342 0.039169 0.005881
0.058544 0.057149 0.005603
0.080661 0.001999 0.005576
0.050855 0.128756 0.014585
-0.106061 0.087642 -0.130595
0.067058 0.123756 0.071304
0.139511 0.033316 0.088255
0.132450 -0.051078 -0.028526
-0.137926 0.002980 0.121776
-0.041726 -0.133657 0.013672
0.050186 0.129925 0.040736
-0.106535 0.060953 0.006008
-0.130287 -0.045178 0.137551
-0.105977 0.013793 0.137856
-0.096762 -0.101527 0.061747
0.059277 -0.035290 0.005628
0.068463 0.124554 0.122978
0.121667 -0.074695 0.066221
-0.089235 0.105281 -0.081694
-0.022937 -0.022701 -0.130820
0.068785 0.017269 0.137829
0.004244 0.061967 -0.130828
-0.089875 0.101845 -0.001214
-0.028604 0.134298 0.033978
0.047404 0.097361 0.005638
-0.130958 -0.041008 -0.002675
-0.120089 0.008651 -0.130828
-0.064821 0.037000 0.005948
-0.136327 -0.032424 0.111749
0.087198 -0.093830 0.137511
0.036119 0.036459 0.005653
0.050256 -0.083936 0.005659
0.141230 0.011324 0.068386
0.055722 -0.130803 -0.102654
0.068312 -0.125879 0.130980
-0.071278 -0.021887 0.005829
0.117409 0.081733 0.110591
0.133398 0.052976 0.124317
0.038137 0.135714 0.121077
-0.081368 -0.042009 0.005745
-0.019929 -0.140310 -0.099283
0.113637 0.085343 0.082947
-0.058675 0.118998 -0.130828
-0.121072 -0.072782 -0.093772
-0.074843 -0.121779 0.115670
-0.120960 -0.067708 -0.002734
-0.082600 -0.085135 0.137581
-0.060942 -0.126790 0.041824
0.003671 -0.027255 0.137812
-0.088353 -0.110403 -0.083551
0.034446 -0.009038 -0.130828
0.023197 -0.129423 0.137843
-0.105348 -0.091559 -0.023409
-0.033913 -0.123025 0.137647
-0.002965 0.112710 -0.130783
-0.020566 0.136769 0.066086
0.132085 0.053312 -0.073399
-0.136904 -0.003274 0.085118
-0.064264 0.068507 0.137862
0.070187 -0.104079 0.000898
-0.065469 -0.124447 -0.035231
-0.100756 -0.095349 0.137677
0.013019 -0.138521 -0.001891
-0.003029 0.139477 -0.127831
-0.133000 0.033951 -0.046436
-0.056282 0.098753 0.005886
0.099341 -0.103718 -0.095149
0.143178 0.011842 0.125275
-0.136103 0.027715 -0.121738
-0.006091 0.139092 0.117598
0.000338 0.025770 0.137727
0.076978 -0.104128 -0.130828
-0.044994 0.128846 -0.016529
-0.065590 -0.105284 0.005804
0.068961 0.076634 0.001034
0.037407 0.095699 0.137653
-0.132306 -0.038567 -0.021328
0.071916 0.097127 -0.130783
0.122341 -0.075715 -0.120877
0.109622 -0.089422 -0.025921
0.016368 -0.118320 0.005739
0.044307 -0.136172 0.129923
-0.115291 -0.077916 0.030083
-0.055501 -0.130687 -0.088070
0.055954 -0.007180 0.001156
-0.027548 -0.026889 0.001084
0.031184 -0.057360 0.005688
0.101908 0.063099 0.137580
0.055527 0.040706 0.137768
-0.133359 0.019160 -0.001170
-0.011469 -0.109252 0.137745
-0.080172 -0.077191 -0.130703
-0.015064 0.030894 0.001086
-0.000411 -0.141704 0.119315
0.140059 -0.015167 -0.059490
0.047213 -0.133364 0.045656
-0.119229 -0.076387 0.122422
0.018982 0.135353 0.043373
0.005000 -0.058491 -0.130828
-0.108244 0.085557 0.103727
0.134494 0.010608 0.005587
0.101045 0.088529 0.001100
-0.086359 0.105335 0.019634
-0.121017 0.065063 -0.078221
0.074380 -0.121218 -0.064141
0.007707 -0.107861 -0.130828
0.071019 -0.121405 -0.008596
0.132290 -0.052734 0.055838
-0.004163 -0.062451 0.137862
-0.069338 -0.122380 -0.130660
0.050317 0.131651 0.092024
-0.029152 0.066513 -0.130828
-0.083640 0.108520 -0.056329
0.134219 -0.045682 0.030229
0.024701 0.075890 -0.130816
0.018053 0.136464 -0.068083
0.076298 -0.071948 0.001110
0.140759 -0.022413 -0.088623
-0.062595 0.060327 0.005928
-0.130304 0.046132 0.084866
-0.048979 0.052817 0.000930
-0.004438 -0.098464 0.005781
-0.101669 0.092451 0.081350
0.076724 -0.047027 0.001253
0.029816 0.037481 -0.130828
0.109691 -0.066465 0.005938
0.091940 -0.022506 0.137810
-0.076369 -0.008365 0.137862
0.122458 -0.074526 0.095647
-0.135674 0.009805 0.064795
0.044234 -0.135905 0.107510
0.042380 -0.071659 -0.130828
0.100776 0.005203 0.005536
-0.006182 0.048395 0.001081
0.005207 -0.139235 0.040359
-0.088294 -0.109603 0.076008
0.007214 -0.139275 -0.032025
0.058272 0.127255 -0.048580
-0.109158 -0.087213 0.045041
-0.097739 -0.023358 -0.130828
0.003056 0.137124 0.073876
-0.045300 0.128652 0.018069
0.044479 -0.134277 -0.040704
-0.028837 -0.059237 -0.130802
-0.025026 0.010671 0.001090
0.086737 0.111510 0.076254
-0.049553 -0.088850 0.137702
-0.123597 -0.070084 -0.119235
-0.130374 -0.049262 -0.066485
0.140365 -0.014313 0.073970
-0.052746 -0.131138 -0.059312
-0.058267 -0.047387 -0.130732
-0.080120 0.112786 0.123787
-0.033501 0.023699 -0.130821
-0.093598 0.013766 0.001012
-0.134164 0.027576 0.041318
0.009176 0.005436 0.137721
0.132493 -0.055254 0.107623
-0.128644 0.051003 0.137756
0.074704 0.036727 0.001139
0.140678 0.015682 -0.039874
0.129727 0.056355 -0.037235
0.100564 -0.005574 -0.130828
0.127321 0.034135 0.001352
0.108434 -0.093004 -0.079814
0.137621 0.040846 -0.100753
0.017532 0.099324 0.001071
-0.005955 0.137569 -0.068043
-0.098421 0.085810 0.000810
-0.054371 -0.009292 -0.130763
-0.134259 -0.038064 0.081795
0.042287 0.052846 0.001035
0.127253 -0.054646 0.000906
-0.118497 0.068870 0.075749
0.120339 0.074204 0.035808
-0.117983 -0.076913 0.094180
0.091461 0.107026 -0.043895
0.037251 -0.039796 0.001150
0.131035 -0.057016 -0.081750
0.005626 -0.140511 0.076738
-0.017354 0.075774 0.005758
-0.039503 -0.052807 0.001015
-0.028554 -0.136610 -0.001622
0.134406 0.046436 0.068030
-0.115647 0.072876 0.035053
0.025386 0.136846 -0.089268
0.095080 0.034456 0.001225
-0.085332 0.065371 0.006007
0.012567 0.121214 0.137643
0.016405 -0.015920 0.005705
0.012577 0.012489 -0.130828
-0.026867 -0.140658 0.128012
-0.000621 0.073443 0.137850
-0.068169 0.118714 0.061746
0.029488 -0.140311 -0.123579
0.096162 -0.085707 -0.130828
-0.047467 0.083775 0.137862
0.142032 -0.007760 0.114443
-0.029885 0.105710 0.001043
-0.001278 0.136013 -0.028692
-0.084856 -0.104526 0.005828
-0.082566 -0.024119 0.137799
-0.007415 -0.140154 -0.077762
0.120131 0.032851 -0.130771
-0.132729 -0.014106 -0.130807
0.141262 -0.027725 0.122933
0.132271 0.049797 0.040433
0.113509 0.087033 -0.123633
-0.112189 0.072244 0.137636
0.095511 -0.104114 0.007252
0.002372 0.135515 0.025753
-0.105765 -0.093067 -0.071455
-0.036809 -0.066705 0.137828
-0.080395 0.109885 0.039198
-0.126257 -0.023092 0.001070
-0.010027 0.135603 -0.004798
0.022257 -0.012687 0.137689
0.061590 0.060543 0.137708
-0.094276 0.101169 -0.114340
0.059144 -0.031991 -0.130828
0.125885 -0.064143 0.016683
-0.061301 0.019015 0.137862
0.050041 -0.133109 0.084721
0.140748 0.029871 0.115677
-0.126400 -0.058448 -0.048585
0.061788 0.071986 -0.130774
0.120852 -0.030315 0.137845
-0.134208 -0.043173 -0.127435
-0.052079 0.128356 -0.099444
0.045877 -0.042422 0.137624
0.115839 0.081519 0.055430
0.123650 0.071448 0.080449
-0.122253 0.063629 -0.103912
0.138342 -0.017503 -0.130822
-0.134930 -0.003020 0.027162
-0.079805 0.091529 -0.130828
-0.096102 -0.006646 0.001054
0.081553 -0.113543 0.137577
-0.045947 0.129099 -0.043490
-0.017147 -0.041279 0.001071
0.064173 0.123788 0.024905
-0.068314 0.121237 0.136944
0.030140 0.134867 -0.037201
-0.016672 0.138330 -0.112624
-0.094571 0.036163 0.137862
-0.097461 0.003993 -0.130828
0.021654 0.113885 -0.130817
0.130924 -0.055484 -0.047908
-0.058010 -0.130227 -0.118271
0.107633 -0.090684 -0.004091
0.054197 0.003795 0.137786
0.013448 -0.061035 0.005724
-0.104929 0.086930 -0.040951
-0.036143 0.009430 0.137862
0.027435 0.136519 0.089209
-0.017437 -0.139124 -0.060899
-0.090773 -0.107738 -0.064290
0.119224 -0.080359 0.115609
0.059773 0.105195 0.137505
0.110948 0.090154 0.126940
-0.074116 0.095592 0.000813
-0.038533 -0.073285 0.001026
0.067397 -0.125598 0.080201
-0.135508 0.004044 -0.046034
-0.079762 -0.116007 0.042701
-0.015822 0.052639 -0.130828
-0.096033 -0.031288 0.005750
-0.055652 -0.130953 0.103220
0.099081 -0.036481 0.005667
-0.084683 0.022091 -0.130828
0.128432 0.064685 0.110020
0.094900 -0.107895 0.092380
0.040712 -0.135293 0.027488
0.138032 -0.033478 -0.033438
-0.136874 0.001921 -0.083701
-0.120239 -0.009019 0.005755
-0.063609 0.019474 0.005953
0.139585 0.010252 0.021162
-0.012856 0.135825 0.014384
0.095092 -0.106862 0.063291
0.107876 0.089723 0.038318
0.120798 0.067879 -0.130651
-0.078392 0.075910 -0.130828
-0.046602 0.130771 -0.118570
0.070786 -0.053214 0.137603
-0.127090 0.051959 0.067163
-0.108026 -0.086829 0.013785
-0.066458 0.120756 0.087082
0.136963 -0.041995 0.080950
0.043158 -0.089922 0.137729
-0.127098 -0.058799 -0.082643
-0.040654 -0.116560 0.005784
-0.044521 -0.136397 -0.130140
-0.138288 -0.013725 0.113132
0.019045 -0.024656 -0.130828
-0.014892 0.026424 -0.130828
-0.119228 0.065687 0.014599
-0.069175 -0.088424 0.005786
0.059447 -0.122284 0.005947
-0.103948 -0.097014 -0.124873
-0.030844 0.047108 0.137846
0.083760 -0.114340 -0.045650
0.114166 0.036352 0.137635
-0.064255 0.053941 -0.130788
-0.055138 -0.006453 0.000919
-0.000842 -0.131687 0.001105
0.076596 0.020992 0.001179
-0.022274 -0.002710 -0.130827
-0.122741 -0.065911 0.041145
-0.071839 -0.122598 -0.084804
-0.021430 0.112842 -0.130813
0.023996 -0.073960 0.005707
0.123700 0.068344 0.012074
0.078022 0.115905 -0.004216
-0.127220 -0.060963 0.128628
0.060952 -0.109777 -0.130828
-0.070759 0.115807 0.024793
0.143147 0.012441 -0.116787
0.058308 -0.061816 -0.130828
-0.037838 -0.087807 -0.130774
-0.065503 -0.126604 0.137497
0.085395 -0.114722 -0.104931
-0.091151 -0.108763 -0.104668
-0.121253 0.063071 0.049626
0.110859 -0.047494 -0.130828
-0.023594 -0.009733 0.001084
0.138427 -0.020037 -0.017405
-0.045866 -0.106535 0.137663
-0.131588 0.008573 0.137738
0.116399 0.009036 0.005505
-0.124338 0.055054 -0.035138
0.138845 0.027400 0.013430
-0.136391 -0.013331 -0.050710
0.123025 -0.072938 -0.073644
0.140315 0.001784 0.053140
-0.048058 -0.096686 0.005767
-0.135142 0.005009 0.043273
0.092481 0.085359 0.137487
-0.105351 -0.041072 -0.130828
0.052348 0.077225 0.005610
-0.075295 0.051388 0.000890
-0.131443 -0.040029 0.015223
0.134671 0.048390 0.105929
0.079155 0.026105 -0.130825
-0.000592 -0.055126 0.001052
-0.035965 -0.137075 -0.058001
-0.041535 -0.135194 0.055898
-0.020355 -0.140342 0.107633
-0.025743 -0.138881 0.071771
0.099036 -0.024816 -0.130828
-0.130106 0.047767 -0.114282
0.136803 -0.036132 0.015575
0.084905 0.075258 0.001100
0.018597 -0.140489 -0.052314
-0.121113 -0.027773 0.137763
-0.127642 0.048611 -0.054638
-0.040370 0.124199 0.000971
0.063755 0.124094 -0.022060
-0.049073 0.005811 0.005908
0.054378 0.080706 0.137663
-0.135395 -0.019764 -0.013367
0.090724 0.106635 -0.011303
-0.068839 0.109126 0.005975
0.139995 0.028796 0.069610
-0.136141 0.014134 0.083029
0.074723 0.119271 -0.051665
0.132112 0.051817 -0.054454
-0.128310 0.049182 -0.079275
-0.066159 0.122031 0.117833
0.108514 -0.091534 -0.045548
-0.053897 -0.018986 0.137862
-0.003912 -0.141824 -0.122153
0.050782 0.023888 0.137850
0.099493 -0.075234 0.137617
0.069981 -0.076026 0.137565
0.045973 0.133015 -0.078842
-0.032768 0.030481 0.001040
0.081564 0.116062 0.110149
-0.009121 0.138155 0.086532
-0.047329 0.064626 -0.130817
-0.077258 0.112369 -0.031573
-0.123452 -0.065900 0.063520
-0.134926 -0.032261 0.050533
0.052380 0.107622 -0.130816
-0.121649 0.055406 0.000914
0.131164 0.012460 0.137651
0.012684 -0.142916 0.135811
0.138565 -0.031725 0.043714
-0.067010 0.120674 -0.078811
0.090699 0.106505 0.013556
0.002108 -0.123252 0.137750
0.107662 0.092843 -0.084416
0.065748 -0.019456 0.005611
0.131483 0.056625 -0.098531
0.066499 -0.086614 0.001092
-0.001879 -0.044846 0.137862
0.022145 -0.065557 0.137790
0.052280 0.132237 -0.124429
0.102447 0.097374 0.078746
-0.027048 0.088229 -0.130828
0.035930 -0.124619 0.001100
-0.108813 -0.075735 0.001026
0.106173 0.092534 -0.045794
0.012946 0.134918 -0.130780
-0.054596 0.037777 -0.130783
0.109542 0.075007 0.005650
0.062578 -0.015092 0.137736
0.021507 0.062717 0.001059
0.058139 0.034964 0.001078
0.091785 -0.012676 0.005558
-0.062573 0.087790 0.005914
0.047430 0.119512 0.001047
-0.122001 -0.011054 0.137808
-0.072404 -0.071885 0.137687
-0.003659 0.117219 0.137684
-0.092802 0.102358 -0.097716
-0.036208 0.007257 -0.130813
0.075152 0.119798 0.137463
-0.044945 0.129407 0.042459
-0.051343 0.091548 -0.130818
-0.131416 0.036644 -0.026042
0.099298 -0.101284 0.037874
-0.001594 -0.127360 -0.130815
0.011235 -0.101136 0.001142
-0.114880 0.076540 -0.088377
0.077301 -0.065627 -0.130828
-0.064540 -0.044366 0.001013
0.002515 0.077541 0.001080
0.023092 -0.140402 -0.078992
-0.034702 0.133590 0.058544
0.013353 -0.142856 -0.129098
-0.104744 -0.091207 0.029145
0.069901 -0.123368 0.048875
0.078730 0.119416 -0.121816
0.103921 0.000273 0.137751
-0.064690 -0.023190 -0.130721
-0.118976 0.029080 -0.130828
0.017084 0.016418 0.001052
0.134607 0.022166 -0.130772
-0.012632 0.136414 0.031724
0.037550 0.050897 -0.130828
0.126546 0.066421 -0.065754
0.061960 0.125611 0.053444
0.037705 0.133985 0.031401
0.039040 -0.135731 -0.019415
-0.105429 -0.094970 -0.109010
0.141370 -0.006089 -0.086996
0.028312 0.137131 0.108468
-0.129868 -0.051584 0.089214
-0.136359 0.025858 0.114146
0.016913 -0.140663 0.065367
-0.119259 -0.071434 0.011850
0.068229 -0.124708 -0.048440
0.053988 -0.077750 0.137650
0.140319 -0.026542 0.086285
-0.082879 -0.033567 -0.130774
-0.138252 0.003361 -0.125783
-0.010083 -0.139681 0.074245
-0.137527 -0.015408 -0.081745
-0.112398 -0.035014 0.001074
-0.123413 0.060814 0.118136
0.106328 0.074781 -0.130658
0.089737 0.052957 0.137654
0.130468 -0.059259 -0.100435
-0.061475 -0.127900 0.090233
0.092643 0.107366 -0.092178
-0.017103 -0.024330 0.137862
0.051748 0.130324 0.069949
-0.138269 -0.019055 -0.099164
0.095335 -0.105038 0.022983
-0.000873 -0.094435 0.137862
0.055399 0.128917 -0.063951
-0.073256 -0.067630 0.005761
0.053161 0.131488 0.119600
0.121744 0.071967 -0.023868
0.028116 -0.046050 -0.130828
0.136233 -0.047378 -0.118149
0.032851 0.099585 0.001057
0.010019 0.081129 -0.130825
0.141732 0.021565 0.098260
-0.012667 -0.034848 -0.130828
0.096564 -0.106226 -0.112177
0.100532 -0.101447 0.137507
0.120713 -0.040541 0.000993
0.139959 -0.023109 0.137708
0.039836 0.072422 -0.130805
-0.024575 0.136727 -0.094141
0.027068 -0.138106 -0.008218
-0.047347 -0.054381 0.137833
-0.104410 0.088656 0.066599
-0.056999 -0.128203 -0.022837
0.068050 -0.054404 0.001238
-0.087805 0.042906 -0.130828
-0.094913 0.098784 -0.044857
-0.004278 -0.098093 -0.130820
0.047109 -0.020325 0.001148
-0.032552 0.069964 0.005816
0.024861 0.059294 0.137804
-0.092286 0.103937 0.127117
0.054908 -0.103259 0.005773
-0.099247 0.094868 -0.076503
-0.078002 -0.117650 -0.040906
0.135835 0.044451 -0.085952
0.128175 0.063814 -0.083864
0.031274 0.099040 -0.130742
0.136692 -0.042839 -0.082691
0.043722 -0.024341 -0.130828
0.091160 0.109530 -0.121743
-0.014248 0.010179 -0.130828
-0.050303 -0.121051 0.137602
-0.051759 0.127424 0.065146
0.100325 0.097517 0.027817
0.127670 -0.001907 0.001187
-0.110784 -0.052363 0.137736
0.131792 0.057883 -0.128075
-0.041939 0.131928 0.098682
0.140681 0.015533 0.047015
-0.093403 -0.106195 0.122144
-0.133154 0.038114 0.097429
0.090936 0.016481 0.001245
-0.086796 0.104671 -0.015652
-0.023281 0.074776 0.137797
0.093242 -0.100448 -0.130655
0.008432 -0.071659 0.137862
-0.076672 -0.117877 0.028165
-0.009738 -0.138531 0.039781
0.074062 -0.123129 0.117438
-0.135268 -0.036493 -0.091277
0.088727 -0.063669 0.001042
0.067002 0.125007 -0.108205
0.122164 -0.072631 -0.025835
0.061889 0.126835 -0.089155
-0.011958 0.093590 0.001097
-0.022802 0.136010 0.047586
-0.106012 -0.091938 0.070001
0.103539 -0.097347 0.055572
0.010599 0.136335 0.061077
-0.011125 0.127359 -0.130773
0.026520 0.050359 0.001050
-0.025071 -0.008732 0.137862
0.096505 0.102973 -0.058509
0.084594 -0.112519 -0.011003
0.121233 -0.059394 0.137767
0.069390 -0.006534 0.001208
0.111190 0.039554 0.001278
0.138782 -0.000798 0.011049
0.056498 -0.130679 -0.119116
-0.077463 -0.116809 0.009140
0.023499 0.086694 0.005663
-0.019681 0.118083 0.001106
-0.046071 0.106692 0.000937
0.044946 0.132377 -0.045225
-0.018112 -0.127519 0.005768
-0.105163 -0.095551 0.123723
-0.082937 0.108804 0.058509
-0.128541 -0.052126 0.043456
0.122270 -0.073161 0.050394
0.113668 -0.069516 -0.130828
-0.000936 0.138886 -0.113423
0.094758 0.039790 -0.130792
-0.058685 0.033320 0.137862
0.072562 -0.120045 0.006182
-0.091649 0.026903 0.005936
-0.019969 -0.139645 0.086534
0.075088 -0.120671 0.068857
0.038432 -0.074608 0.137724
0.137246 -0.042491 0.096607
-0.135186 0.000409 -0.032035
-0.067678 0.099401 -0.130828
-0.137732 -0.003157 -0.102773
0.034914 -0.138867 0.096871
-0.003436 0.062002 0.005722
-0.134193 0.009227 -0.013542
0.034344 0.115587 0.137574
0.118138 -0.080771 0.083430
0.010879 0.111205 0.005681
0.127342 -0.062492 -0.035611
-0.136735 -0.032726 0.134437
-0.136394 -0.003761 0.069453
0.033955 -0.057394 0.137714
-0.059124 -0.127213 0.026892
0.051612 0.129152 -0.027742
-0.116931 -0.076578 0.052770
-0.037445 -0.043600 -0.130795
-0.112368 -0.086271 -0.120560
0.140765 0.022685 -0.052348
-0.008076 0.070130 -0.130828
0.106586 -0.029385 0.137831
-0.006282 -0.067331 0.005794
-0.038718 0.127150 -0.130809
0.022253 0.049568 -0.130828
-0.050423 0.032294 0.000926
-0.098838 0.096652 0.104507
0.129867 0.050868 0.005608
-0.084454 0.046944 0.137862
-0.113698 0.075653 -0.130828
-0.020079 -0.139822 -0.085078
-0.133532 0.034860 -0.082721
0.139383 0.026434 -0.018136
-0.119733 -0.075039 0.108324
0.060505 0.126249 0.137521
-0.003017 0.025099 0.005734
0.129255 0.059514 0.069689
0.042928 -0.071916 0.001198
-0.137619 0.019800 0.131712
0.109461 0.090766 0.103264
-0.074988 0.077638 0.137862
-0.086934 -0.098468 -0.130711
0.090687 0.018079 -0.130824
-0.096652 -0.080971 0.137621
0.015993 -0.117415 0.137862
-0.133847 0.035436 -0.104667
-0.015713 -0.039579 0.137862
-0.050142 0.128661 -0.085170
0.002199 0.099741 -0.130805
-0.120677 -0.071162 -0.044557
0.091391 0.108912 0.116975
-0.053853 -0.130052 -0.040487
0.020157 -0.139880 0.038412
0.076609 0.119109 0.083284
-0.083753 -0.055710 0.005761
0.139925 -0.013247 0.060131
0.043824 -0.051141 0.005662
-0.104205 0.038454 0.001006
-0.117039 -0.073968 -0.130797
0.121127 0.072238 -0.010056
-0.094837 -0.030478 0.137747
0.008903 0.119694 -0.130780
-0.107812 -0.013974 -0.130828
-0.099929 -0.097341 0.046146
0.128380 -0.061985 0.071935
-0.062449 -0.128252 0.118884
-0.045311 -0.129683 0.001039
-0.107981 0.082472 -0.028345
0.060004 0.124874 0.000559
0.077125 -0.084876 -0.130828
0.133876 -0.053143 0.122127
0.135855 -0.044098 0.066786
-0.015015 0.136487 -0.024019
0.040555 0.003876 -0.130828
0.101013 0.096187 0.014237
0.034087 -0.129686 -0.130828
-0.112294 -0.084403 0.079494
0.062473 0.091818 0.137570
-0.134045 -0.040373 0.095768
0.124130 0.000779 0.137693
0.023688 0.137810 0.122206
-0.135999 -0.006539 0.054405
-0.119840 0.065910 -0.042009
-0.097255 -0.101631 0.082395
-0.129539 0.039829 -0.009698
-0.089593 -0.061161 -0.130774
-0.093217 -0.089710 0.005821
0.119473 -0.075849 0.014433
-0.071308 0.004601 0.137862
0.110535 -0.091026 -0.093015
-0.056635 -0.021003 0.000948
0.073267 0.038239 -0.130816
0.114312 0.005037 -0.130817
-0.080857 -0.115683 0.060608
0.123549 -0.073187 -0.104436
0.008713 0.044166 0.005704
-0.053443 0.116122 0.005886
-0.090793 0.083848 -0.130828
0.099961 -0.076358 0.000832
-0.006130 0.139560 0.130968
-0.058657 0.124104 -0.035906
-0.033556 0.133482 -0.041093
0.035683 -0.137589 0.060504
-0.061964 -0.083927 0.137683
0.050151 -0.128630 0.000909
-0.106778 -0.063913 0.005803
-0.096781 0.069976 0.000929
-0.000204 -0.138383 0.022529
-0.091041 0.102274 0.035225
0.032213 -0.085692 0.001176
0.000549 -0.005547 0.001063
0.066761 0.124014 -0.068791
0.114865 -0.082305 -0.011439
0.136152 0.046616 0.135651
-0.137025 -0.030607 -0.125218
0.055632 -0.130162 -0.046592
-0.038484 -0.018709 -0.130803
0.084198 -0.097381 0.005956
0.141773 0.025021 0.127923
-0.118220 0.070281 0.110532
-0.010951 0.032613 0.137772
-0.045874 -0.084250 0.001017
0.054459 0.130454 0.104478
-0.023367 0.122413 0.137746
0.039598 -0.087197 -0.130828
0.029450 -0.069183 -0.130828
-0.007624 0.138107 -0.081490
-0.026376 0.034757 -0.130828
0.010352 0.087034 0.005688
0.106108 0.096160 -0.117778
-0.031573 0.134818 0.072959
-0.087324 0.107527 0.110761
